-0.0356243415 -0.3635432569 -0.4726062339
0.4782619356 0.3322265870 0.0882556215
-0.2947718149 0.1285736838 -0.0857157892
0.2588382796 0.4131629049 -0.0292561181
0.2255884843 0.0750418977 -0.0500279318
-0.2459555815 -0.7311008348 -0.1303701119
0.2985980801 -0.7661879592 -0.2343552908
0.2248762949 0.0894176332 0.0064001575
-0.3029197503 -0.3152639564 -0.2346511228
0.4061530383 -0.5580729101 -0.1764882176
0.4506207473 0.1703539511 0.0646896339
0.2790273086 0.2512902690 -0.1840078862
0.1864135047 0.1703539511 0.1358713911
0.4979611099 -0.8818181818 -0.1110573307
-0.1727822717 -0.7199455460 -0.1637273272
-0.0061935551 -0.0724550026 -0.3268646835
0.3300924731 0.1703539511 -0.0836281736
-0.2522042117 -0.8008818639 -0.1101245768
-0.3315395610 -0.4771365922 0.0191142725
-0.1616043798 0.5503433875 -0.1046145696
0.4441818035 0.2512902690 0.2570338671
0.2508376888 -0.2343276385 -0.2606735577
0.4400884098 0.3322265870 0.0305122107
-0.3366613992 -0.4771365922 -0.1616331206
0.0776929165 0.5750355407 0.1856647886
0.3986846190 -0.4771365922 -0.1056501684
-0.2899247939 0.2512902690 -0.2109137819
0.5824528557 0.4555749280 0.4414306449
-0.1375270949 0.4940992228 0.2308164050
0.0018296216 0.3216493809 0.4181441952
-0.3336314597 -0.3152639564 0.0002393442
-0.6451538272 0.4131629049 0.4192494503
-0.2451537357 -0.4771365922 -0.2044874792
0.2628527114 0.4131629049 -0.1280157810
0.1605655462 0.4940992228 -0.0395708969
-0.2884151931 0.2512902690 0.0694303918
0.3382367432 0.3322265870 0.1059176857
0.1838838632 0.0084813153 -0.0640764454
0.1364512639 0.4940992228 -0.2595607080
-0.2717019477 -0.8818181818 -0.2828339237
0.0345919393 -0.3534399116 -0.4594718851
0.0273922653 0.5953939442 -0.0460488459
-0.3201010419 0.3322265870 -0.1287410859
0.3287035204 -0.5580729101 0.0005420339
-0.6872474926 0.4131629049 0.3252092262
0.1574234774 0.0131524472 -0.0087682981
-0.5303558769 0.4131629049 0.0925043252
0.1955335813 0.6485693338 0.3127677077
-0.2203313412 0.3322265870 -0.3171372507
0.6025826553 0.2512902690 0.2412230605
-0.1215093606 -0.0724550026 -0.3181559805
-0.1308751679 -0.1533913206 -0.2777336754
-0.3138381947 -0.8818181818 0.0668609067
0.2986894121 -0.8818181818 -0.0671121496
0.4548698698 -0.8818181818 -0.1501054312
-0.1764348347 0.0013048704 0.0016963315
-0.3782936137 0.3322265870 -0.0658649558
-0.2802260585 -0.2343276385 -0.2378485290
-0.1774985368 -0.3152639564 0.0065621615
0.0201179103 0.5948617777 -0.0467406623
-0.1811038753 -0.8008818639 -0.2339983662
-0.2116964207 -0.3962002743 0.0079022669
-0.4483658355 -0.8818181818 -0.0666671879
-0.1565236505 -0.3962002743 -0.1833296539
-0.2499361826 0.0894176332 -0.2372021107
0.1975032497 0.6488504826 0.3125802752
-0.0691465218 0.2512902690 0.1947171435
0.4598558885 0.3322265870 0.3143746844
-0.2274043915 -0.8818181818 -0.3289468381
0.0271327435 0.2512902690 0.4336534617
-0.0464806789 0.0894176332 0.1390734480
0.1113031776 0.3399175609 -0.3781681441
-0.0501309521 0.1133832173 0.1473981825
0.2745922976 -0.4771365922 -0.0119699016
0.0931345598 0.3322265870 -0.3806505876
-0.2086106583 0.1703539511 -0.3255346568
0.2274346523 0.1703539511 0.0871692108
-0.1016641718 0.4940992228 -0.3244827036
0.0449563084 0.4940992228 0.2739579182
0.2851326306 -0.6390092281 -0.2354248970
0.0429398396 0.2588375901 0.3364888671
0.1120921141 -0.0304777274 0.0203184849
0.1732797991 -0.1533913206 -0.2564690137
0.1942433481 0.4294326970 -0.2617984673
0.4884961571 -0.8818181818 -0.0526573251
0.2431928180 -0.7907862679 -0.2079611750
0.4560230299 -0.8952555109 -0.1483102563
-0.0536136887 -0.3152639564 -0.3707268388
-0.1739481108 0.4940992228 -0.0178727923
0.3279019716 -0.2343276385 -0.0413231961
0.3873372184 -0.8008818639 -0.1858961727
0.2574049928 -0.1533913206 -0.1890185000
0.5379075432 0.3322265870 0.4311883936
-0.4668313761 0.2512902690 0.1938601420
-0.2750198466 -0.2343276385 -0.0095783152
0.6148744669 0.4131629049 0.3772500271
-0.2002569073 -0.3152639564 -0.2529808644
0.1517655485 -0.0158345755 -0.0205849482
0.2368489089 0.0950979507 -0.0633986338
-0.0185711187 0.6014656310 -0.0381556531
0.3965193676 -0.7199455460 -0.1272844681
0.1133502249 0.5652023924 -0.0852978632
0.3919636666 -0.3152639564 -0.0982126954
-0.5953602960 0.5677880195 0.3666219173
0.0441704844 -0.0724550026 -0.3282620405
0.1605329640 0.0084813153 -0.0206391676
0.0409232853 -0.4541678792 -0.5904182430
-0.3072802099 -0.8305703106 -0.2596804304
0.0822466113 0.4940992228 0.2728178081
0.0665962431 -0.3152639564 -0.1767352224
-0.0241105386 -0.2987960202 -0.3884348263
-0.2036798791 -0.8870626720 -0.3331205002
0.4040687418 0.1703539511 -0.0080036345
0.2984095473 -0.4771365922 0.0013945930
-0.5125387767 0.4131629049 0.0995272138
0.5008004611 0.4131629049 0.3783883523
-0.1471165063 -0.3962002743 -0.1041860508
-0.0063398766 0.5009804714 -0.3339869810
-0.2095789184 -0.8818181818 -0.1289953687
-0.1186488125 0.4940992228 0.2763076165
0.5030066090 0.4131629049 0.1904109374
0.5820590981 0.2654523796 0.3450880935
0.1384019778 -0.3962002743 -0.1669337774
0.1928791153 0.0396183882 -0.0264122588
0.3086045769 -0.8818181818 -0.2580861821
0.0249210207 -0.3962002743 -0.4310988350
0.0134081399 -0.2681530221 -0.3485989288
0.3821496856 0.3322265870 0.1676216807
-0.0721969674 -0.0724550026 0.0633867122
0.3805672624 0.3322265870 0.1870316730
-0.2267845463 -0.5580729101 -0.0534015863
0.4953117511 0.4131629049 0.1895376407
-0.1110752336 0.5787885539 -0.0676358533
0.4213874642 0.1703539511 0.0558450082
0.3757784081 -0.6887879920 -0.0753634163
-0.2250650171 0.2512902690 0.0899861481
-0.6275031367 0.2512902690 0.1910447646
-0.2278824434 0.5750355407 0.2269133951
0.2968414878 -0.3962002743 0.0261264713
0.3961429154 -0.7199455460 -0.1517088792
-0.2628904794 0.2512902690 0.0784610484
0.0814221746 0.5750355407 -0.0263478418
0.4026196061 -0.3962002743 -0.0650125028
0.3886695069 -0.3152639564 -0.1223270559
-0.3479447471 -0.9007799670 -0.1446272856
-0.1268971476 0.5687464723 -0.0806905594
0.3737203633 -0.8089745433 -0.2058309014
-0.0773494608 -0.2343276385 -0.2756486354
0.2353615355 -0.8008818639 -0.1686046357
0.4450775298 0.2512902690 0.2589425023
-0.5754322466 0.4131629049 0.2967840626
0.5119241430 0.2512902690 0.3627223111
-0.0314282339 -0.3728699198 -0.4965673171
0.1500701754 -0.1533913206 -0.0091098050
0.1157331969 0.4940992228 0.2314765769
0.0929627473 0.0894176332 -0.3506962634
0.2598189590 0.4131629049 -0.0800739789
0.2320264309 -0.7783185373 -0.1917531252
-0.2583856211 0.1703539511 -0.2529966717
-0.3743558375 -0.5580729101 -0.1222438054
-0.2008862334 0.0084813153 -0.2358905695
0.0307760239 0.2512902690 0.3795768810
0.1012111064 0.3322265870 -0.3802184108
-0.2581063863 -0.7199455460 -0.3136543858
-0.5736834443 0.5750355407 0.2833542451
0.5530425367 0.4985975821 0.4127488755
0.3784983928 -0.3152639564 -0.0211985277
0.3879485367 0.2512902690 -0.0789615496
0.0366666411 -0.3598320939 -0.4677817221
0.0175561998 0.0084813153 -0.3516742639
0.2241968687 0.0894176332 -0.1618403593
0.4272955108 -0.8818181818 0.0834682744
-0.4954381567 0.2512902690 0.2098459907
-0.0572997153 -0.2343276385 -0.3064711735
-0.0924846786 -0.1533913206 -0.3013421289
0.1539692587 0.0894176332 -0.3226522368
-0.5427852485 0.4940992228 0.2249043929
0.1923375109 -0.0696577199 -0.0905550359
-0.2340299981 -0.3962002743 0.0197085494
-0.1628020951 -0.6390092281 -0.2127470846
-0.0529953687 -0.0967592393 0.0645061595
-0.6073676823 0.5213990550 0.3975478936
-0.3961858854 -0.8982368462 -0.1463226994
-0.3166281369 -0.8818181818 0.0683049480
-0.2673760568 0.0894176332 -0.1938276636
0.2178091344 -0.7645806354 -0.1738938527
0.3341449124 -0.5580729101 -0.2334724148
0.2744178894 0.1703539511 -0.1258386527
0.3168022533 -0.7199455460 -0.0596032571
-0.1701665688 0.0894176332 -0.3246218608
0.4870787336 0.3322265870 0.3489449985
0.0372106384 -0.2343276385 -0.3024916216
0.0396888653 0.2514117446 0.3268352680
0.2638248085 -0.3152639564 -0.2511610977
0.4248856662 0.2512902690 -0.0299983924
0.5477593857 0.3898860264 0.4852232460
0.0443701294 0.0084813153 -0.3451039773
-0.2296141777 -0.8008818639 -0.1313031193
0.0527606114 -0.1533913206 -0.3051834407
0.3996839132 0.1703539511 0.1363514415
0.3066078783 -0.5580729101 -0.2262444013
-0.2169258583 -0.0724550026 -0.1231346611
0.0081905638 0.3198542429 0.4158105157
0.1377822486 0.2512902690 -0.3795917212
-0.0276121562 0.2117350146 0.2752555190
0.4989634900 -0.8818181818 -0.1014842861
0.0102980442 -0.3152639564 -0.2985776548
-0.2149925649 0.4940992228 -0.1076529081
0.3846540531 -0.3962002743 -0.1238224006
-0.1898160459 -0.6390092281 -0.2602556573
-0.5421868472 0.3322265870 0.0297823028
-0.5115289807 0.3322265870 0.2180994426
-0.2296968223 -0.7123935966 -0.1060507022
-0.3063735058 -0.7343854530 -0.1346401156
0.0294420309 -0.4271421734 -0.5552848254
-0.1308903046 0.4940992228 0.2839035353
-0.0529664576 0.2512902690 0.4579799085
0.3220454122 0.3322265870 0.0970556642
-0.5391732888 0.5750355407 0.3023819422
0.0736154330 -0.0724550026 -0.3243202387
-0.2647844683 -0.1533913206 -0.1276518078
-0.1238501629 0.3322265870 0.1637946496
0.0434611324 0.3322265870 0.3424960446
0.3962194316 -0.7199455460 -0.1161064829
-0.3261922836 -0.8818181818 0.0612722579
0.4621480904 0.4131629049 0.3176037817
-0.3107737477 -0.8977359781 -0.1466566115
-0.1421653670 -0.3962002743 -0.1338181786
0.3840289687 -0.3152639564 -0.0390737079
0.2432475648 -0.8818181818 -0.1512453805
0.0911224685 0.0894176332 -0.3512373199
0.2477915118 -0.1408486783 -0.1831032818
0.4197126376 0.3322265870 0.2417532061
-0.3516935834 -0.7199455460 -0.2146740623
-0.4304354791 0.2512902690 0.1262704277
-0.2666603345 0.3322265870 0.0645863736
0.2443943670 0.4131629049 0.0250196922
0.1796660560 0.0084813153 -0.0487901294
-0.1785027685 -0.7679229859 -0.2331986064
-0.1989114164 -0.5580729101 -0.0835157737
0.0199166108 0.3184443600 0.4139776680
-0.1426862365 0.4940992228 -0.3024650366
-0.1770674086 -0.5580729101 -0.1912084230
-0.0265575458 -0.3152639564 -0.4162899113
-0.1314461274 0.4940992228 0.0825073292
-0.1724807587 0.4940992228 -0.2733935243
-0.1079046678 0.2719177925 0.3534931303
-0.2368716976 -0.1363893066 -0.1773060986
0.0588164162 0.5750355407 0.2849483140
-0.4947740190 0.3322265870 0.0295196399
-0.2873445540 -0.5580729101 -0.0223748415
0.0807316078 0.3322265870 -0.3919200681
0.1695327283 0.4131629049 0.0885798158
0.4104818781 0.2512902690 -0.0516673457
0.1493578757 -0.0336681781 -0.0437686315
0.0293888303 -0.4624407970 -0.6011730361
0.4201950809 -0.8818181818 -0.1671947596
-0.2682163138 0.0894176332 -0.1103383213
-0.0557301724 0.3186580031 -0.4058055694
0.1898523657 0.0894176332 0.0814571821
0.0751553994 0.5750355407 0.3095707659
0.5899698032 0.4131629049 0.2835355129
0.5465835584 0.4940992228 0.4577008759
0.4896064123 0.4131629049 0.1917625279
0.0393234300 0.4979676934 -0.3319784623
0.2943013758 0.2512902690 -0.1358876447
-0.0589349546 0.2512902690 -0.4071038773
-0.3534765479 -0.4771365922 -0.1314615329
-0.3287302286 -0.3152639564 0.0050720656
0.5627368264 0.3322265870 0.5053740200
-0.3285869275 -0.8008818639 -0.1868030223
0.5096517914 0.3322265870 0.3713564969
0.2072902666 -0.0938830650 -0.1220479845
0.5716391195 0.3085547044 0.5394441273
0.0015161762 0.4131629049 0.3318319967
0.5698132552 0.3322265870 0.5123899739
-0.0677132619 0.0894176332 0.1474571770
-0.3803791973 0.1514111513 -0.1009407675
0.5775602954 0.2671552735 0.3473018555
0.2604444841 0.4131629049 -0.0866263963
0.2827529989 0.2512902690 -0.1588591340
0.1599385041 0.0165910645 -0.0110607097
-0.4051773500 0.1703539511 -0.1018252124
-0.3301774787 0.3322265870 -0.1168657098
0.2629231729 0.3322265870 0.0660317880
-0.2438787942 0.4131629049 0.0115576527
0.2743228830 -0.8008818639 -0.1064759152
-0.2359399434 0.4505076494 -0.2344010291
0.4204868779 0.1703539511 0.0428919931
0.0535456393 -0.2343276385 -0.0074038560
-0.6792895907 0.3322265870 0.1075945566
0.1590432334 -0.0724550026 -0.2567604775
0.2226597028 -0.8371645786 -0.1870375445
0.2315268927 -0.4771365922 -0.0729335620
0.4944046401 0.3322265870 0.3569510631
0.0777008304 -0.2343276385 -0.2812871316
-0.2694462870 0.3322265870 -0.2491639021
-0.3659054545 -0.6390092281 -0.2187176328
0.2473333765 -0.2343276385 -0.2622962828
0.1848575242 0.0894176332 0.0894839519
0.1166987005 -0.1533913206 -0.2784532107
0.1938213478 -0.0724550026 -0.0948906435
0.0537534853 0.4131629049 -0.3747585239
-0.4928457753 0.3322265870 0.0300096470
0.4009247664 -0.6390092281 -0.0702730072
0.3845219429 0.3322265870 0.1453789506
-0.4697282828 0.3322265870 0.1621025923
-0.2297010673 0.0389392790 -0.0259595193
-0.1505726301 0.3322265870 0.2398961474
-0.2440861718 -0.8008818639 -0.1169398759
0.0929772863 -0.1533913206 0.0130882144
0.0985883681 0.4940992228 0.2026369871
-0.0858078603 0.2512902690 0.3132185451
0.2501049220 -0.6626306960 -0.0413589314
0.3330269552 -0.8008818639 -0.0677470094
0.3956479817 -0.7199455460 -0.1721337845
0.3936272117 -0.8958984201 -0.1478816502
-0.1830469916 0.4940992228 0.0564013617
-0.2755845753 0.4131629049 -0.1118093036
0.0358493689 0.1703539511 -0.3920025501
0.1874741430 0.2512902690 -0.3374147138
0.3931922346 0.2512902690 0.2363046411
0.0066334494 0.5018076143 -0.3345384096
0.3627071223 -0.8008818639 -0.0611221935
-0.3615485678 -0.6390092281 -0.1134452959
0.2491048671 -0.6390092281 -0.2197409573
-0.3293389206 -0.8008818639 -0.1915020980
0.1022937468 0.3322265870 0.1571541467
-0.2011417752 0.2512902690 0.0999717897
-0.0879101661 0.2512902690 0.4262449156
-0.1989125439 -0.0724550026 -0.0805786005
-0.1134883395 -0.2141608891 -0.2784091558
0.5959709120 0.3159597801 0.5345074102
0.3963613369 -0.8964201955 -0.1475337999
0.2966345255 0.2512902690 -0.1342612848
0.3719613044 -0.5580729101 -0.0073879044
0.2996535569 0.3322265870 0.0793293216
-0.5359133144 0.6013835087 0.3442249244
-0.3084678941 -0.2343276385 -0.2203918593
0.2511644119 -0.3152639564 0.0261890855
-0.3318556365 -0.2343276385 -0.1936651308
-0.5386324907 0.4940992228 0.2709942345
-0.0558775650 0.5750355407 0.0853982886
0.2332007523 0.4131629049 0.0314364907
-0.3665775221 -0.6390092281 -0.2161306750
0.5733102038 0.4893046751 0.4189441469
-0.0521924305 -0.3152639564 -0.3134598085
0.0261813826 0.1703539511 -0.3937198297
-0.2822144052 -0.7199455460 -0.3083059488
-0.3521463748 -0.7199455460 -0.2194238811
-0.6350751022 0.5025365706 0.4101228832
-0.1278502839 0.0084813153 -0.3278081478
0.0836188893 0.3322265870 0.1932856714
-0.1618739810 -0.8437007889 -0.2767500522
-0.3070277718 0.2689866022 -0.1793244014
-0.4177582329 0.1703539511 -0.0900287234
-0.6466219427 0.4940992228 0.2946689020
0.0768249620 0.3322265870 0.2219834157
-0.1167514359 0.4131629049 0.3096330218
0.2266662913 0.0894176332 -0.1470818521
-0.4385366886 0.1703539511 -0.0648002739
0.2053260605 0.3322265870 0.1379199870
-0.5511328380 0.2512902690 0.0323930814
-0.3632253438 -0.3962002743 -0.1535093637
0.0530699507 -0.0869680637 0.0579787091
-0.6707728487 0.4131629049 0.3974102669
-0.3098603818 -0.8275149915 -0.2557085156
0.5279855615 0.4131629049 0.4711494486
-0.3610073068 -0.6390092281 -0.2311212419
0.0985326031 0.4940992228 0.1176410163
0.1736729414 0.4253258431 -0.2835505621
-0.6136687035 0.4940992228 0.2058662046
0.1603672878 0.3706760696 -0.3381820829
-0.3224547990 -0.8008818639 -0.2120339068
0.1107165396 0.2512902690 -0.3865713733
0.4577239372 0.3322265870 0.0679837859
-0.2388667622 0.3322265870 -0.3035523141
-0.0838669246 0.4940992228 0.2650222789
-0.2372231799 -0.3962002743 -0.2265558792
-0.0897134300 0.3322265870 -0.3980195626
-0.3232966698 -0.8008818639 -0.2078368529
-0.2649237803 0.4131629049 -0.0077234473
0.4924937216 0.4364269659 0.5673550557
-0.2313956895 0.6559718586 0.2453282106
0.2607480841 -0.4771365922 -0.1580621539
-0.2151680156 0.4940992228 -0.1654724491
-0.2581882651 0.0894176332 -0.0705934328
-0.5877771134 0.3322265870 0.0213257877
0.4603296575 0.1703539511 0.0834279163
0.2596180250 -0.6586659205 -0.0362047233
-0.1121131369 0.2944945117 0.3828428652
-0.1932028598 -0.5580729101 -0.2238190261
-0.1055578301 0.1703539511 -0.3816354329
0.0672655318 -0.2343276385 -0.2812127340
0.0718431495 0.4850065731 -0.3233377154
0.4570857719 0.1703539511 0.0917267183
0.1607043426 0.4940992228 -0.0399984665
0.3771040942 -0.3962002743 0.0217383083
0.3325771193 0.2512902690 -0.1103160373
-0.4777766413 0.4131629049 0.1505890135
0.0804156779 0.4940992228 0.2576288145
0.4005967596 -0.3962002743 -0.0869846045
-0.1966301264 -0.0634501784 -0.0824852319
0.1942111617 0.1703539511 -0.3115064273
-0.6260312848 0.4940992228 0.2166281883
-0.2328552928 0.0894176332 0.0513331143
0.4030440054 -0.6390092281 -0.0772280053
-0.5437839084 0.2512902690 0.2583853244
-0.1429944498 0.5750355407 0.2973966734
0.3834411185 -0.6390092281 -0.2121008544
0.3978278068 -0.8818181818 -0.1822300665
-0.2730146934 0.4131629049 -0.1736515492
-0.2520144338 -0.1533913206 -0.1482387064
-0.1286708769 0.4131629049 -0.3623931154
0.1459752432 0.4940992228 0.0709483613
0.0959687688 0.4940992228 0.1323685486
-0.0328745534 -0.3783563811 -0.4929096762
-0.1827902918 -0.0320384861 -0.0416500320
-0.0273170267 -0.3962002743 -0.4921893006
-0.1470975588 -0.3152639564 -0.2274860272
-0.0623856310 0.2512902690 0.4630415467
0.0654473963 -0.3152639564 -0.1741965475
-0.2996750517 -0.3962002743 -0.2117411052
0.5623341410 0.3322265870 0.4939314218
-0.0964055241 0.4131629049 0.3353757343
-0.0080009196 -0.1533913206 -0.3150582662
-0.2576105471 0.2512902690 -0.2935573763
-0.1359897049 0.1142865123 0.1485724660
-0.1871875508 -0.7199455460 -0.1430652205
0.2454397277 -0.7199455460 -0.0806863832
-0.2950613791 -0.7199455460 -0.3009092040
-0.2424004076 0.0646400100 -0.0430933400
-0.2090021053 0.3322265870 -0.3357482853
-0.3501051916 -0.7199455460 -0.2017017812
0.1167771238 0.4940992228 -0.2862948438
-0.2132084194 -0.5580729101 -0.0635000571
-0.0394359203 -0.2343276385 -0.3241096075
-0.3004703761 -0.4771365922 -0.1948336822
-0.2462019213 0.6559718586 0.2900085143
-0.4294142944 0.3322265870 0.1271762166
-0.5164292241 0.4131629049 0.2135948245
-0.6380154282 0.4131629049 0.1378977412
0.5436590165 0.3322265870 0.4405352331
0.2344193109 0.0894176332 -0.0650190528
0.3783380558 -0.7772475719 -0.1903608701
0.2794101943 0.2014531381 -0.1343020921
0.1271844771 0.0084813153 0.0357417806
-0.4721584754 0.4131629049 0.1734952138
0.0812378800 0.5750355407 0.0098081638
-0.0903403078 -0.0724550026 0.0443750814
-0.2502633426 -0.1533913206 -0.1540180481
0.1504413623 -0.3962002743 -0.1033685489
0.5786050881 0.2316264763 0.3011144192
-0.6299073030 0.2512902690 0.1775555745
-0.0614117060 -0.0724550026 -0.3285859422
0.5906182377 0.3884100453 0.5049330589
-0.6792231781 0.4131629049 0.3791758111
0.0366268051 -0.3962002743 -0.5778692006
-0.0892123384 0.1703539511 0.1473852673
-0.5505892814 0.2512902690 0.2575788854
-0.0210001791 0.5750355407 -0.2281194181
0.2661957762 -0.1533913206 -0.1377464146
0.5181422985 0.1941058736 0.2523376357
-0.1948880178 0.1703539511 -0.3348758488
0.5231117787 0.4131629049 0.4548899109
-0.2663966575 -0.7199455460 -0.1206150182
-0.6529960609 0.4940992228 0.3263800357
-0.0129325593 -0.3962002743 -0.5593305839
-0.6267444146 0.4529951935 0.4431504679
-0.2387858020 0.6559718586 0.2975107121
0.1672588734 0.3322265870 0.1541666793
0.5269453369 0.2512902690 0.1132884329
-0.3285415645 -0.8818181818 0.0378734496
0.3986429850 -0.3962002743 -0.0131434724
-0.1743114936 0.4131629049 0.1553634148
-0.2591752523 0.3322265870 -0.2772583470
0.5718838911 0.3322265870 0.1222874764
-0.2696145931 0.0894176332 -0.1828625788
0.0104191502 -0.0724550026 0.0719439782
0.1720652706 0.5750355407 0.2563749207
-0.3436879555 -0.3152639564 -0.1953182390
0.5115353177 0.2512902690 0.0978821476
-0.6619039855 0.4131629049 0.2380229790
-0.2467799577 0.0715475685 -0.0476983790
-0.1749659561 -0.6390092281 -0.1030125787
-0.6426327216 0.4131629049 0.4186284057
-0.3241617658 -0.7657126746 -0.1753655036
0.3438890596 0.1703539511 -0.0787126201
-0.0739163742 0.2512902690 0.3624136193
-0.3213166546 0.1703539511 -0.1376604077
0.1030030841 0.5750355407 -0.0916763822
-0.2139587844 0.2512902690 -0.3304033445
-0.1359512533 0.3322265870 0.1415361955
-0.2034309597 0.6559718586 0.2852280658
0.6077870736 0.3322265870 0.3244684941
0.2400719077 -0.8008818639 -0.2017623762
0.0481869641 -0.2343276385 -0.2819649898
-0.2136247736 -0.8818181818 -0.3312560641
-0.4952183048 0.2512902690 0.2096811059
-0.1218082247 0.0084813153 0.0787442800
0.5578509839 -0.8818181818 -0.0228308787
0.2346222208 -0.8008818639 -0.1705472733
-0.2908666796 -0.3152639564 -0.2449951364
-0.1182691543 0.4810283976 -0.3206855984
-0.3191564225 -0.8042247974 -0.2254312633
-0.1499002813 0.3322265870 0.2494007008
-0.2554928643 0.0894176332 -0.0531740153
-0.2767892687 0.3322265870 -0.2448840755
-0.5445898755 0.5904561442 0.3515098341
-0.1267939476 0.3386002429 -0.3798806575
-0.1720915403 -0.7199455460 -0.1715165786
0.1259242367 -0.1533913206 0.0029079316
0.2105726233 0.6559718586 0.3045405140
0.4403596971 -0.8817341890 -0.1573244709
-0.2407253134 0.4131629049 0.0194921197
-0.1863018041 -0.8008818639 -0.2050881753
-0.2133748030 -0.8818181818 -0.3312856663
-0.1438445483 0.2512902690 0.1279056192
-0.2439072914 -0.6390092281 -0.2883395169
0.2971580049 -0.8818181818 -0.2634680233
0.0796339084 0.4838042751 -0.3225361834
0.2009278846 -0.5580729101 -0.0738814737
-0.4188726909 -0.8818181818 -0.1188716049
-0.3384446462 -0.3962002743 0.0175938130
0.1871728477 0.3322265870 -0.3311821790
0.3694163982 -0.7199455460 -0.0749196633
-0.1974781192 0.0084813153 -0.0469073358
-0.0680795122 0.2512902690 0.2073446553
-0.1020169211 0.1703539511 -0.3829058700
0.5829679765 0.3151859199 0.5350233170
0.4008867881 -0.7352441862 -0.1357564688
0.3921320279 -0.7113789393 -0.1047316477
0.4196178807 -0.5580729101 -0.0608311228
0.5194078593 0.3322265870 0.3856937872
0.2558184445 0.4131629049 -0.1532428789
0.3327954447 -0.2343276385 -0.2014534652
0.4354774054 -0.8818181818 0.0042181650
0.0201206846 0.5750355407 0.0902401099
0.0300673286 -0.3962002743 -0.5092528258
0.3833610095 -0.8818181818 0.0606962138
-0.3393446330 -0.4771365922 -0.1583181730
0.1561356313 -0.2343276385 -0.0022116339
0.4330822285 0.2512902690 0.2425526711
0.5326908645 0.2512902690 0.3591693881
0.0273194823 0.0084813153 -0.3507108647
-0.1803177601 -0.8008818639 -0.2501806859
-0.2358338094 -0.8818181818 -0.0407894096
0.3554920627 -0.5580729101 -0.2290154380
-0.2296150206 0.6559718586 0.2991099194
0.1751100882 0.6440099653 0.3158072867
0.2443835443 0.4131629049 -0.1901570225
0.3560224883 -0.5580729101 -0.2287191442
-0.2415315500 0.2512902690 -0.3109592564
-0.1781938696 0.5750355407 0.1931006120
-0.2306014432 0.0461913621 -0.0307942414
0.2388740103 0.3322265870 0.1016470606
0.6094949752 0.3848283711 0.4885950162
0.2947315257 -0.6512054599 -0.0265061245
-0.1294142774 -0.1533913206 -0.2788260441
0.4207700588 -0.5580729101 -0.0949505321
0.1541286307 -0.3962002743 -0.1860947621
0.4977963562 -0.8818181818 -0.1140531382
-0.2704459880 0.4131629049 -0.1903558055
-0.2344414365 -0.8008818639 -0.3019426927
0.4111479319 -0.4771365922 0.0033716621
-0.2801906293 0.4131629049 -0.1277213136
-0.3275676850 -0.2343276385 -0.1992072378
0.1798337763 0.6559718586 0.3308432730
-0.1366636296 0.1703539511 -0.3680195318
-0.2452697194 -0.8008818639 -0.1161791746
0.2526330099 0.1703539511 0.0721491787
0.2721868010 0.3312988413 -0.2208658942
0.4538386848 0.4131629049 0.2405762697
0.2681951763 0.2512902690 0.1030975637
-0.3103221174 -0.8977062283 -0.1466764447
-0.2926648420 -0.2343276385 -0.2310696432
-0.2975062689 0.2512902690 0.0696645565
0.0395162561 -0.3765725056 -0.4940989265
-0.1103221217 0.4940992228 0.2689199154
-0.5322739530 0.4131629049 0.2354232364
0.6244826910 0.3322265870 0.1897481214
-0.1732791903 -0.7491584636 -0.2457082879
0.2489263889 0.1703539511 -0.2363320272
-0.1716228380 -0.5580729101 -0.1525305859
0.3785608642 -0.3152639564 -0.0217870124
0.1284704605 0.1185182283 0.1540736968
0.1379359919 -0.3152639564 -0.2411397437
0.2404818103 -0.3152639564 0.0242632102
-0.2586283087 -0.3152639564 0.0251258771
0.1773930495 0.3322265870 0.1560617050
-0.2217409670 -0.7199455460 -0.3049360913
-0.1666111188 -0.6390092281 -0.1117627416
-0.2529266797 0.4131629049 -0.2346223500
-0.2451784965 0.6559718586 0.2904270882
0.2405307551 -0.8045645216 -0.2087709159
0.2105039591 -0.6390092281 -0.1737481106
-0.0817364790 0.2512902690 -0.4036513319
0.4151126238 0.3322265870 0.0137710235
-0.5455503685 0.5750355407 0.4229856080
0.5134365123 0.4606904898 0.4380202704
0.3399056241 -0.3962002743 0.0235365795
-0.3098430077 -0.8818181818 0.0640520120
-0.3484423639 -0.3962002743 -0.1765940020
-0.2569942452 0.1703539511 -0.2594522033
-0.2576090528 -0.8818181818 -0.0238813236
-0.2755116356 0.3431073083 -0.2287382056
-0.1728344772 -0.5580729101 -0.1436488338
-0.2612338936 -0.6681766307 -0.2996961765
-0.3169187880 -0.8125081894 -0.2361996728
-0.2389532111 -0.7204397779 -0.1165107379
-0.2145253470 -0.6390092281 -0.0724198547
0.2271249656 -0.8213532454 -0.1975784333
-0.1609903464 -0.8818181818 -0.2295481570
-0.3740589078 -0.3152639564 -0.0457154428
0.1956797060 0.3322265870 -0.3241503247
-0.2875579407 0.1199111386 -0.0799407591
0.1236393362 0.6559718586 0.2492099719
-0.0901494489 -0.3152639564 -0.1630315376
-0.4323644911 0.3322265870 0.1440108093
-0.2703300534 0.4131629049 -0.2005699476
0.2035003612 -0.5580729101 -0.1321381747
0.0688539825 0.2512902690 -0.3999136195
-0.2514097583 0.3322265870 0.0928400037
-0.0696939562 0.2512902690 0.2436541981
-0.3702578470 -0.6390092281 -0.1776036263
-0.5316253628 0.2512902690 0.0214916194
-0.0340403357 -0.3306800553 -0.4298840718
0.2995311965 -0.6390092281 -0.2391959768
0.1583086470 0.4131629049 0.1176749069
0.2266667913 -0.4771365922 -0.0916645092
0.1386468020 0.6559718586 0.2449428512
-0.1268152079 0.4940992228 0.0984259469
-0.3837686758 -0.9047311172 -0.1419931855
0.0411869772 -0.3962002743 -0.5702035986
-0.3661304594 -0.3962002743 -0.1490741891
-0.6022359333 0.4940992228 0.1963091812
-0.0657600019 0.3322265870 -0.4018445290
-0.4541972129 0.3322265870 0.1472327556
-0.1060281398 0.4131629049 -0.3702525956
0.0116688072 -0.3962002743 -0.4099157079
-0.2159235543 -0.4771365922 -0.1875412279
0.5555338910 0.2512902690 0.1321771306
0.3723109748 -0.8949292408 -0.1485277697
-0.3450538243 0.1703539511 -0.1341996121
0.2526924687 -0.5580729101 -0.2036353394
-0.0621660511 0.3322265870 0.3967030758
0.5575639072 0.2126967001 0.2765057102
-0.5845399220 0.5750355407 0.3804295952
-0.1513003376 -0.3962002743 -0.1726649625
0.1567664212 0.4940992228 -0.0164206683
-0.3937870774 0.1703539511 0.0890517916
0.2885585882 -0.8008818639 -0.0924769362
0.0913788749 0.3322265870 -0.3818021998
0.1943235930 -0.6390092281 -0.1237852777
0.1824272743 0.4940992228 -0.1506481623
0.1646680287 0.5750355407 0.2418477019
-0.1654394080 -0.8226022429 -0.2493219424
0.1875794522 0.6559718586 0.3313552770
0.6280075347 0.3582514462 0.4657268800
0.2372587013 0.1703539511 -0.2519738480
-0.5718600027 0.5750355407 0.3637875489
-0.5174918532 0.2512902690 0.2519828676
0.1830434933 0.0084813153 -0.0936679423
-0.1426155148 -0.3962002743 -0.1577524973
-0.5729379556 0.5401061048 0.3850765270
-0.1286497229 0.1703539511 0.1500295181
-0.1900792407 -0.8818181818 -0.3271333959
0.2858036025 -0.7199455460 -0.2382943622
-0.1959574979 0.6559718586 0.2755150784
0.5278953816 0.3322265870 0.1111214794
0.4449236321 0.4131629049 0.2505062053
0.0494703253 0.4940992228 0.2734640386
0.4293896530 -0.9020065011 -0.1438095962
0.4781586773 -0.8818181818 -0.1356624381
-0.1369207950 -0.3152639564 -0.2172336680
-0.3439897454 -0.6390092281 -0.0832461310
0.2161466153 -0.7607700133 -0.1689400439
-0.2662754813 -0.8818181818 -0.0063087311
0.0993154679 0.4940992228 0.2055931519
-0.3761001931 -0.8818181818 -0.0791418852
0.0050207088 -0.3962002743 -0.5797205432
0.2627065314 -0.9010121102 -0.1444725235
-0.1896272867 -0.4771365922 -0.0975143365
-0.2447055284 0.4131629049 -0.2521942832
0.0763552301 0.4940992228 -0.3130208118
0.1585452942 -0.0468086221 -0.0608512088
0.0376727385 0.5750355407 0.0922085706
-0.3271813755 -0.5580729101 -0.0234339497
-0.6552191117 0.4940992228 0.3455823663
-0.3003148855 -0.3152639564 0.0198057572
-0.3631194494 -0.8818181818 -0.1908681821
0.0503902912 0.5750355407 0.2553561100
0.1713116069 0.1703539511 -0.3352208314
0.0956529568 -0.0724550026 0.0193822193
-0.4160216768 0.1703539511 -0.0923230152
-0.6278605127 0.4503053457 0.4449436998
0.4068673930 -0.8818181818 0.0895254244
0.3131899965 -0.6390092281 -0.2396697949
-0.0500493036 0.1133529922 0.1473588899
0.6003468395 0.4131629049 0.4777936940
0.1062983886 0.3322265870 0.2681839170
-0.1267963922 0.4131629049 0.2676119644
-0.0309098652 -0.2877816531 -0.3741161491
-0.0711447686 0.2512902690 0.2308158302
0.1228849398 0.2512902690 -0.3861660400
-0.2244788315 0.4131629049 0.0292559867
-0.5733003953 0.5750355407 0.2828163719
-0.2203933226 -0.0724550026 -0.1400346111
0.1608358931 0.5750355407 0.2547101577
-0.2209073466 0.3322265870 -0.3165308703
-0.5918807143 0.4940992228 0.4009595680
0.5392044366 0.4131629049 0.5059660557
0.5154790926 -0.8818181818 0.0616664707
0.0670043425 0.5750355407 -0.1980206389
-0.2384457726 -0.1086667797 -0.1412668136
-0.1297016779 0.4940992228 0.0921339733
0.2278977711 -0.6873895144 -0.0735453954
-0.0828733087 0.3322265870 0.3492010962
-0.0156284403 0.5750355407 -0.2295150713
-0.5025888736 0.2512902690 -0.0304892848
0.4132071141 -0.4771365922 -0.0488436589
-0.2720852598 0.1703539511 -0.1997508337
0.0101850090 -0.3118663794 -0.4054262933
0.1571771327 -0.3152639564 -0.0062368467
0.6001390367 0.2809038747 0.5578780138
-0.3827543727 0.1703539511 -0.1202377293
-0.1851947344 -0.8010996012 -0.2110808628
0.3793523553 0.3322265870 0.1929407823
-0.2603291320 -0.6390092281 -0.2918453971
0.3566323565 0.1703539511 0.1280869009
0.3885652925 -0.3152639564 -0.1227071609
0.1537617519 0.0269186619 0.0349942605
0.1538315120 0.0084813153 -0.2747120332
0.3370987455 0.2512902690 -0.1086645826
-0.6812568888 0.3322265870 0.1699722409
-0.3504218830 0.1703539511 -0.1303675745
-0.1095659272 0.2984771990 0.3880203586
-0.2143360099 0.4940992228 -0.2053101165
-0.0690018477 0.2512902690 0.3337607322
0.2571230651 -0.5580729101 -0.0082364172
-0.1813510970 -0.3962002743 -0.0180969958
-0.2413074531 -0.7199455460 -0.1174627064
-0.0099894009 -0.3962002743 -0.5648861156
0.0110807753 -0.1533913206 -0.3136836334
-0.3629077299 0.1703539511 -0.1275067383
0.5209980597 0.2512902690 0.3623270370
-0.1142437385 0.2871589689 0.3733066596
0.1397645080 -0.3152639564 -0.0129718477
-0.3827503527 -0.3152639564 -0.0692117244
0.0620885327 -0.2343276385 -0.0096185458
0.1440423385 0.4131629049 0.1435437941
-0.0279809200 0.4940992228 -0.3423813785
-0.1613617621 0.1703539511 -0.3563042400
0.3092087123 -0.4771365922 -0.1683293981
0.2582907807 0.1188442726 -0.0792295151
-0.2302072463 -0.3962002743 0.0176334563
0.1679219810 0.0084813153 -0.2513499268
0.3351656412 -0.7199455460 -0.0659148315
-0.3679133690 -0.5580729101 -0.1414534636
0.3735393582 0.3322265870 0.1427425917
0.2225416523 -0.8384770023 -0.1861625954
-0.1859616744 -0.0476579495 -0.0619553343
-0.1712563252 0.2512902690 0.1150106914
0.0301533717 -0.3962002743 -0.4898853719
0.4175747103 -0.8818181818 0.0961967152
-0.1475308394 0.3322265870 0.2356670070
-0.0339313215 -0.3152639564 -0.4063183849
0.2532920581 -0.8818181818 -0.2697168727
0.0104156046 0.2512902690 0.4530238743
0.5499659966 0.3322265870 0.4561621313
0.3591894156 -0.7199455460 -0.0702344466
0.1844013940 0.4940992228 -0.1062380892
-0.0058514052 0.0942268958 0.1224949645
0.1549333337 0.4940992228 0.0024664059
0.2051629778 -0.5580729101 -0.1412223084
0.1008417827 0.2512902690 -0.3864724874
-0.3610176405 0.2512902690 0.0772944422
0.2059846169 -0.0724550026 -0.1610204282
-0.2906149443 -0.8008818639 -0.2707417200
0.1224327525 -0.0228606330 0.0152404220
-0.6363868203 0.3322265870 0.0514925340
-0.0776852798 0.2563517483 0.3332572728
-0.0099921996 -0.1533913206 -0.3148960191
-0.1319571053 -0.3152639564 -0.2135367184
-0.3201087855 -0.2343276385 -0.0377786479
-0.2176534439 0.4131629049 0.0306901411
0.3796212026 0.1703539511 -0.0564194045
-0.1134627581 0.3322265870 0.3046624888
0.2818104680 0.1943537783 -0.1295691855
0.0262919128 0.1703539511 -0.3937007839
-0.4860129540 0.3322265870 0.1836242421
0.5693841057 0.3920780576 0.5097014749
-0.2833859971 -0.7199455460 -0.1121305800
-0.0378241552 -0.2343276385 0.0159588845
0.5478423668 0.3753024192 0.4878931450
0.0629205021 -0.0685453954 0.0456969303
0.6378603840 0.3322265870 0.2549557612
-0.1807612566 -0.0225856223 -0.0293613090
-0.3373134066 -0.8818181818 -0.0141033281
-0.0821895061 -0.0724550026 0.0572151282
-0.0825535017 -0.1533913206 -0.3037129134
0.3972298534 -0.7423654442 -0.1450141041
-0.3027059035 0.2512902690 0.0690643528
0.1433497358 0.4481180324 -0.2987453549
-0.3041238415 -0.7310050099 -0.1302455395
-0.3247935389 -0.7722910534 -0.1839173961
-0.2912015515 0.1238553707 -0.0825702471
-0.0502767464 0.2212131131 0.2875770471
0.2524645716 0.4131629049 -0.0070117048
0.2221523870 -0.3152639564 -0.2627926207
0.2151402218 -0.5580729101 -0.0454734640
-0.0806106573 0.2428378924 0.3156892601
-0.5547970451 0.5568849388 0.3738906377
-0.3421667795 -0.5580729101 -0.2405377358
-0.3135173185 0.2512902690 0.0668535351
-0.3012722212 -0.6390092281 -0.2835401040
0.4456962396 0.4131629049 0.2813740286
0.0712392312 -0.2343276385 -0.2818368830
0.3155941924 -0.2343276385 -0.0312009667
-0.0673279421 0.2512902690 0.2531520925
0.5505227723 0.4131629049 0.2101132344
0.2246913185 -0.8451352124 -0.1817237887
-0.1644011295 0.4131629049 0.1769203227
0.2743701935 -0.8008818639 -0.2393977989
0.3959647448 0.1703539511 -0.0237062357
-0.2052547186 0.0894176332 -0.2946737375
0.2881266722 -0.6390092281 -0.0214953158
0.1339896626 0.2512902690 0.1329337861
0.1684844819 0.0894176332 0.1145883056
-0.3832587484 -0.3152639564 -0.1167742826
-0.2682027724 -0.3962002743 -0.2205929687
-0.3195997020 -0.7199455460 -0.2789011991
0.1278023824 0.6413429394 0.3175853040
0.6376018603 0.3322265870 0.2347755896
-0.1092955936 0.3322265870 0.3142364326
0.2350540825 -0.7199455460 -0.0893008608
0.1331708271 0.6595312054 0.3054597933
0.2299038960 0.0894176332 -0.1331651814
-0.3787627337 0.3322265870 -0.0618628011
-0.0920381021 0.5750355407 0.0414013862
-0.2101689598 0.5750355407 0.2306507484
0.3148581650 -0.8818181818 -0.0314922371
0.0030952997 -0.3028235317 -0.3936705913
0.2479602801 -0.6635516153 -0.0425561265
-0.1605270934 -0.3962002743 -0.0629946734
0.1251792588 0.5750355407 0.2559320598
0.1797807369 -0.0558267387 -0.0725747603
0.5530233503 0.2512902690 0.3532565216
0.2122568386 -0.3962002743 -0.2191423117
0.1495238147 -0.1533913206 -0.2742870939
0.4123683418 -0.5580729101 -0.1090677539
0.3928305779 0.3322265870 0.2396391699
-0.0975376850 0.5850107143 -0.0595470448
-0.2387041503 -0.8818181818 -0.3214996067
-0.1195571492 -0.0724550026 0.0073041418
-0.6349630105 0.5076024919 0.4067456023
0.0364430078 -0.3625057481 -0.5034767649
-0.1202376523 -0.1533913206 0.0147011412
-0.2383070811 -0.8008818639 -0.1192772293
0.0479221830 0.3322265870 0.3341611877
0.2887641018 -0.7199455460 -0.2398347458
-0.3390273674 -0.3152639564 -0.0071524906
0.3788841289 0.3322265870 0.1955076242
-0.3100693177 -0.7408687849 -0.1430684470
-0.5977183419 0.4131629049 0.3349395251
-0.2563066507 0.0894176332 -0.2239911028
0.2550681763 0.1132909516 -0.0755273011
0.2980684044 -0.5580729101 -0.0047775540
-0.0380752229 0.2146323148 0.2790220092
0.0648081034 -0.3152639564 -0.1220303647
0.5264560412 0.4131629049 0.4663411213
0.2481905287 -0.5580729101 -0.0107336702
-0.1129744612 0.2914009545 0.3788212409
0.2834754283 0.2512902690 -0.1781202335
-0.0399940346 0.3164655949 -0.4086556999
0.1741383370 0.1703539511 0.1440037566
0.2708051928 -0.6544596689 -0.0307365962
0.0970788268 0.0894176332 0.1538143980
-0.2925981774 -0.6390092281 -0.2890118128
0.5583131850 0.3543776638 0.5088954877
0.0610166542 0.4131629049 0.3382305799
0.6014466650 0.2512902690 0.3010657430
-0.5815028459 0.5750355407 0.3640156500
-0.5859117866 0.3322265870 0.0209488359
0.1738458635 0.2512902690 -0.3522755568
-0.0681272707 0.3165494129 0.4115142368
-0.2500650434 -0.2343276385 -0.2466358376
0.1480064533 0.0084813153 0.0072654151
0.5952463517 0.3446336640 0.5153914876
0.1746908727 0.2512902690 -0.3508837235
-0.1439401547 0.0084813153 0.0746943529
0.1275549311 -0.2343276385 -0.0069670954
0.3801670884 -0.7199455460 -0.2073146109
0.4256531112 -0.8818181818 0.0930126435
-0.4064768842 -0.8818181818 0.0104680974
-0.3858204658 -0.3152639564 -0.0972322338
0.0507768149 0.5916783056 -0.0508791760
0.1044929498 0.5750355407 -0.0992577483
-0.0880850390 0.2512902690 0.4165145743
0.2132728482 -0.7199455460 -0.1286700809
0.2465852157 -0.4771365922 -0.1469516141
-0.2977749936 0.3322265870 0.0293475788
-0.3053222245 -0.6390092281 -0.0555686076
-0.1944023411 -0.1963859708 -0.2553017621
0.4875685684 0.1858808845 0.2416451498
-0.2344445524 -0.3962002743 -0.2262411862
-0.1343591571 0.0894176332 0.1429318718
-0.0374574786 0.1031268093 0.1340648521
-0.2098388927 -0.8008818639 -0.1618980284
0.4022119533 -0.3962002743 -0.0586061885
-0.2064668507 0.4364981459 -0.2909987639
-0.2446238543 0.0894176332 0.0143718232
0.3567468572 -0.6686739756 -0.0492151949
-0.2032576277 0.4940992228 -0.0763898992
-0.2734801793 -0.8818181818 0.0087459438
0.1844229981 -0.1533913206 -0.2510472071
-0.2237373646 -0.3152639564 0.0211847920
0.4931761012 -0.8818181818 -0.1213287867
0.2187470151 -0.5580729101 -0.1759553074
-0.5105057275 0.4131629049 0.1015741802
-0.0177055801 0.4940992228 -0.3421134116
-0.2107794359 -0.7307125441 -0.1298653340
0.0169563749 0.2512902690 -0.4080681379
0.2526685792 -0.6390092281 -0.0319534160
0.2411199914 0.1703539511 -0.2487510605
0.2013218755 -0.3962002743 -0.0265837719
-0.6622390012 0.3322265870 0.2370092401
0.4126074261 0.1703539511 0.0147056984
-0.1570032962 -0.3962002743 -0.1841060925
-0.1510291627 -0.0724550026 -0.0150742139
0.5457572710 0.2512902690 0.1238956435
0.6212799918 0.3322265870 0.3641471802
-0.1798931109 -0.7710424121 -0.2311189888
-0.4594575014 0.2512902690 0.1948179683
-0.2346592118 0.3322265870 -0.3092401829
-0.0394004788 0.1703539511 0.1328080264
0.5085340081 0.3322265870 0.3699323205
0.0274070697 0.2512902690 0.3684319604
-0.4775585751 0.3322265870 0.1736166306
0.3672836681 -0.3152639564 -0.0050543064
0.3310414869 0.3322265870 0.1016701987
-0.1863752196 -0.5580729101 -0.2134761427
-0.3117568441 -0.6925260157 -0.2834632531
-0.3698206826 -0.3152639564 -0.0397545569
0.3514938462 -0.2343276385 -0.0980455388
-0.1195603498 0.2512902690 0.1414956541
0.2799352167 -0.3962002743 0.0239597328
0.4129533395 -0.4771365922 -0.0572730851
0.3510087156 -0.2343276385 -0.1026623348
0.2738313677 0.3322265870 -0.2005289495
0.4060262452 -0.8818181818 -0.1761218152
-0.2464435539 -0.4771365922 -0.0012978611
-0.2646877588 0.4131629049 -0.0484732627
-0.3996709129 -0.8818181818 -0.0742529397
0.3791880855 0.2512902690 0.1935228538
-0.0835421197 0.5750355407 -0.1930692312
0.2862720694 0.3322265870 -0.1543136721
-0.2343490276 -0.1006979973 -0.1309073965
0.2139372808 -0.7406667560 -0.1428058095
-0.3461745333 -0.5580729101 -0.0392789560
0.2420599471 -0.6390092281 -0.2160339995
-0.3322063353 -0.5580729101 -0.2484358634
0.3852140189 -0.3962002743 0.0200061180
-0.2042547416 -0.2343276385 -0.2512152330
0.4178312031 -0.8818181818 0.0207371158
0.1376927751 0.6559718586 0.3137404141
0.6002742298 0.2512902690 0.2679090154
0.4280378116 -0.8818181818 0.0618316570
0.2845985656 0.3047260567 -0.2031507045
-0.2393070968 -0.3962002743 0.0218910229
0.0800849801 0.0894176332 0.1550689024
0.0892142959 0.1240251047 0.1612326361
-0.2347442106 -0.7199455460 -0.1135532433
0.2324876412 -0.5580729101 -0.1914049755
0.0231100090 -0.4181988194 -0.5436584653
0.0391430282 -0.3737513883 -0.4858768048
0.3790874760 0.3322265870 0.1448361236
0.1048709068 0.4940992228 0.2166343569
0.0854609229 -0.2343276385 -0.2780272593
-0.0330334396 -0.3205945254 -0.4167728831
-0.2168115555 0.0084813153 -0.1326676854
0.0640605750 -0.0646976899 0.0431317933
-0.1044305081 -0.3152639564 -0.0754035528
0.3905665651 -0.3962002743 0.0161469572
0.1248808026 -0.2121082220 -0.2757406887
-0.1993852336 0.0084813153 -0.0544163415
0.5436353765 0.2512902690 0.3568477843
-0.0902265476 -0.3152639564 -0.1093172972
0.4040024437 0.1703539511 -0.0086665078
0.3961337315 -0.8008818639 -0.1743624735
-0.0486181848 0.2512902690 0.4542155371
-0.2446481472 0.6559718586 0.2527599584
0.4664889701 0.2249073886 0.2923796052
0.0743158977 0.1703539511 -0.3881059064
-0.4393963728 0.3322265870 0.1015075132
-0.5883092376 0.4131629049 0.0960068052
0.3457930386 -0.4771365922 0.0171078357
-0.3481931670 -0.2343276385 -0.1028950820
-0.1797063526 -0.8008818639 -0.2619033256
0.0835438952 0.5750355407 -0.1723707733
0.6004455208 0.2813722109 0.5575657897
0.6157499651 0.4131629049 0.4265835198
-0.5576048797 0.2512902690 0.0372645584
-0.0750239832 0.2512902690 0.1631590946
-0.5819606293 0.4131629049 0.3104456728
0.0395393136 0.2512902690 0.2881030309
0.0628030370 0.0084813153 -0.3361320209
-0.6395376805 0.4131629049 0.1412335321
-0.2023802386 -0.0724550026 -0.2136381001
0.1047597304 0.5750355407 0.2840198069
0.2549966994 -0.7199455460 -0.2248458429
-0.3648267291 -0.9042840806 -0.1422912098
-0.0386577835 0.0084813153 0.1028649893
0.6039041475 0.3115125506 0.5374722299
0.2697232345 -0.6390092281 -0.2320471531
-0.1843029190 -0.7986641445 -0.2182024145
-0.2873366670 -0.5580729101 -0.2625116988
0.2647039072 -0.1533913206 -0.1671715108
0.5680821899 0.2211433682 0.2874863787
-0.5545526858 0.5750355407 0.3370693389
0.1998506272 -0.5580729101 -0.0990487963
-0.3617036224 0.3322265870 -0.0853561781
-0.3350010522 -0.7199455460 -0.2590919831
-0.2154920345 0.5750355407 0.2300353501
0.1792550972 -0.3152639564 0.0076946674
0.0532953358 0.5750355407 0.2687609305
-0.1619281445 -0.8537361980 -0.2897960840
0.1908271948 0.4807187171 -0.1951266412
-0.3267152959 -0.8818181818 0.0429201385
0.1611745191 0.3720714421 -0.3363680986
0.4420215935 0.2512902690 -0.0110252733
0.3959978960 -0.3962002743 -0.1023316445
0.5989246153 0.4131629049 0.4799915028
0.3667919209 -0.6390092281 -0.0362875770
-0.5409190160 0.5750355407 0.3312894329
-0.5441061084 0.5750355407 0.2890658262
-0.6758306356 0.4131629049 0.2628265860
0.0816252589 0.5750355407 -0.0252088956
-0.1243324868 0.3353237325 -0.3841401212
-0.2005754096 0.4131629049 0.0438564051
-0.0386795566 0.0894176332 -0.3537713807
0.2312869711 0.0894176332 -0.1232734155
-0.2862865551 -0.6390092281 -0.2903684705
0.0358739676 0.3322265870 0.3536295381
-0.1361999250 0.3322265870 0.2745295037
0.2813371169 -0.3962002743 0.0243307522
0.5998853939 0.4131629049 0.3389525175
-0.1897877383 -0.8008818639 -0.1931252613
0.1263507881 0.2512902690 0.1346406619
0.5627741920 0.4940992228 0.4289907429
-0.2316614766 0.4131629049 0.0277056312
0.1278987312 0.2512902690 0.1345825792
-0.0828793722 -0.2343276385 -0.2741512568
0.3757831396 -0.6887925101 -0.0753692898
-0.2036034113 -0.0726414320 -0.0944338616
0.1519089070 0.4940992228 0.0417832192
-0.1451743048 0.5618110503 -0.0897066079
-0.6163974675 0.4836297123 0.4227274554
-0.1439088672 0.4763722092 -0.3175814728
-0.3463516199 -0.2343276385 -0.1629514357
-0.2276887214 -0.8839915400 -0.3291280287
-0.2621602592 0.1703539511 0.0599279646
0.0623628153 0.2886214618 0.3752079004
0.1649732047 0.6378013734 0.3199463480
0.2184281789 -0.1916631304 -0.2491620695
0.0428797060 -0.4426764709 -0.5754794122
-0.6860710572 0.4131629049 0.2936858157
-0.2072870404 -0.5580729101 -0.0719146471
-0.0625172502 0.4131629049 0.3192626980
-0.1636798103 0.5750355407 0.2595910939
0.1449792584 0.0164213161 0.0213477109
-0.0275654324 -0.3968681078 -0.4805685251
-0.1854567609 -0.5580729101 -0.0987491363
0.3577447521 -0.8818181818 0.0236411931
-0.3789757111 -0.3962002743 -0.0254830769
-0.2473703715 0.3829726244 -0.2553150829
0.0406669943 -0.4546838165 -0.5910889615
0.2193487370 0.1703539511 -0.2809230944
-0.1853983028 -0.0467879438 -0.0608243270
-0.1992018808 0.3322265870 -0.3453909496
0.3989975743 -0.6390092281 -0.0646800597
-0.0031718737 0.4940992228 0.2801507328
0.6024376719 0.2512902690 0.2503044351
0.2055052972 -0.0724550026 -0.1646075078
0.2492194876 0.4131629049 -0.0656596950
-0.1983266707 -0.7199455460 -0.2895693756
-0.2727095242 -0.8818181818 0.0075760614
-0.1374772041 -0.3962002743 -0.1477591623
0.2075158935 0.2512902690 0.1276607806
-0.3844876601 0.3322265870 -0.0386477517
0.0872735687 0.5750355407 -0.0456380880
0.4359785222 0.1703539511 0.1208986180
0.3161993576 0.1703539511 0.1099413613
-0.1066124102 -0.2343276385 -0.2749850326
-0.3204799861 -0.8005393035 -0.2206401212
0.0644793383 -0.1533913206 0.0199786976
-0.0889209673 0.5873826214 -0.0564635655
-0.2917380233 -0.2343276385 -0.0159238409
0.2897068128 0.3322265870 -0.1447933635
-0.0330400950 -0.3784111598 -0.4919345078
0.5822590008 0.2457307206 0.3194499367
-0.3747869980 -0.5580729101 -0.0881099809
-0.2512081422 -0.4771365922 0.0006855933
-0.4467985685 0.3322265870 0.0716738799
-0.6680250932 0.3322265870 0.2244282135
0.0387864837 0.0084813153 -0.3476273979
0.3021809120 -0.3152639564 0.0256150583
0.5010235727 0.4430584249 0.5759759524
0.4034642549 -0.6390092281 -0.1240052329
-0.5388025340 0.3322265870 0.2511647481
0.3896329007 0.2512902690 -0.0769307433
-0.6450265927 0.4131629049 0.1547210604
-0.1773381639 0.0056609185 0.0073591941
0.2516049898 0.4131629049 -0.0582856715
0.1648946313 0.4131629049 -0.3097107544
-0.1224639930 -0.3152639564 -0.2070792963
0.4149465091 -0.6390092281 -0.1503936404
0.4892094729 0.2512902690 0.0351957737
0.1591735347 0.6742754518 0.2956302957
-0.5945206009 0.4940992228 0.3679017353
-0.3825589108 0.1703539511 0.0833338421
0.2429844291 -0.6390092281 -0.0359574337
-0.1298302231 -0.2136932880 -0.2778012744
0.4992816666 0.4131629049 0.3714000398
0.5269624951 0.4246590124 0.5520567162
-0.3190824099 -0.3152639564 0.0106974502
-0.2552922339 0.0894176332 -0.0348286016
0.1810908125 -0.1533913206 -0.0197733552
-0.2593776903 0.1703539511 -0.2521616682
0.0329467930 -0.3962002743 -0.5108764204
-0.1662808837 -0.8818181818 -0.2175110159
0.3992740930 0.3322265870 0.2399198821
-0.2307415165 0.0894176332 0.0564584240
0.2434649835 0.4131629049 -0.1946400888
0.5811954569 0.2512902690 0.1461030752
-0.6336603896 0.2512902690 0.1654004658
0.4626477291 0.4131629049 0.2198446433
0.2189403928 -0.7199455460 -0.1116657141
-0.4721600295 0.4131629049 0.1737168897
-0.0764308950 -0.2343276385 -0.2758503483
0.1142004904 0.1703539511 -0.3743390505
-0.1821737305 -0.0724550026 -0.0516048424
-0.1145701030 0.5750355407 0.2638453882
-0.1832382607 0.4532822355 -0.3021881570
0.6053985319 0.2512902690 0.2858997683
-0.4955200795 0.2512902690 0.2099454535
-0.0025844251 0.2159110822 0.2806844068
0.3786577755 0.1703539511 0.1217575287
-0.4367854222 0.2512902690 -0.0872025899
0.0261411214 0.2512902690 0.2293742282
-0.4931276490 0.4131629049 0.1205476676
-0.6197676279 0.5223960405 0.3968832366
0.1843005278 0.6559718586 0.2727994966
-0.1057578806 0.4131629049 0.3306207434
-0.5799192642 0.2512902690 0.2546668734
-0.4038124983 -0.8818181818 0.0288424533
0.2952903901 -0.6390092281 -0.2390939630
-0.3010913269 -0.8008818639 -0.1118427970
0.5757994135 0.2512902690 0.1436800860
0.2698133736 0.1703539511 -0.1347714923
0.2792044781 0.2512902690 -0.2007583368
0.5963063004 0.4131629049 0.3288781706
-0.1955001659 0.0316508652 0.0411461248
0.2243380337 -0.8301559054 -0.1917099933
0.5491891380 0.3745676236 0.4954355145
0.0859109808 0.5750355407 -0.1577179999
0.2413540167 -0.2343276385 -0.2640721224
0.1744453349 -0.3152639564 -0.2535101734
-0.1333268620 0.1703539511 -0.3679935846
0.6268715008 0.3322265870 0.4617625440
-0.2275192428 -0.5580729101 -0.2527753343
-0.2244777389 -0.2343276385 -0.2482081858
-0.3292738060 -0.8008818639 -0.1659452590
0.4885193587 0.2512902690 0.0578809036
0.0479175359 0.5750355407 0.0916931719
0.1764325645 -0.0561167684 -0.0729517990
-0.6603819172 0.4131629049 0.2353701587
0.1504006822 -0.3962002743 -0.1833863148
-0.0399519954 0.0894176332 -0.3536412728
0.4647464526 0.4131629049 0.2088248018
-0.1580674482 0.5750355407 0.3099086690
0.2902061814 0.2512902690 0.1183978979
-0.2139336579 0.3322265870 -0.3287221928
0.1211572813 0.0084813153 0.0490460962
