-0.0800188978 -0.2170373263 -0.2821485242
0.5826148630 0.2649410735 0.3444233956
0.2218018370 0.4131629049 -0.2392645781
-0.3090117347 -0.7390630055 -0.1407209339
0.5478423668 0.3753024192 0.4878931450
0.1525467250 0.3610641372 -0.3506775950
-0.2626427465 -0.3152639564 -0.2539240413
-0.6291663400 0.4612367816 0.4546638329
-0.5905386352 0.2512902690 0.2482939109
-0.5604396968 0.4940992228 0.2059970694
-0.0828961636 -0.2343276385 -0.0058494230
-0.2786795312 0.4131629049 -0.1497536955
-0.0949966070 0.5750355407 -0.1587598443
0.2558184445 0.4131629049 -0.1532428789
-0.3245542136 -0.7862801370 -0.2021032047
-0.6599998393 0.3322265870 0.0757727667
-0.0024006834 -0.4212563735 -0.5476332856
-0.4999442452 0.2512902690 -0.0482168758
0.4509169094 0.2015510120 0.2620163156
0.2218892605 0.4131629049 0.0346329043
-0.4267888999 0.1703539511 -0.0757336954
-0.3003445916 0.3322265870 -0.1674743527
-0.0703107250 0.2512902690 0.2396125816
0.1926509153 -0.0724550026 -0.2047524347
0.3899351608 -0.3962002743 -0.1148886787
-0.2219332698 0.2512902690 -0.3214514878
0.3310414869 0.3322265870 0.1016701987
0.2532536898 -0.3152639564 0.0265627916
0.5702998694 0.3383702302 0.5141275062
-0.1545969041 -0.3962002743 -0.0722738910
-0.0187268561 -0.4048599219 -0.5263178985
-0.5376828602 0.4940992228 0.2367821046
-0.2318775052 -0.6390092281 -0.0703833467
-0.2388544746 -0.8818181818 -0.0367184375
0.5585494402 0.3322265870 0.1186304633
-0.0964625364 -0.0724550026 0.0289209249
-0.6398689741 0.4131629049 0.4166620626
-0.4721584754 0.4131629049 0.1734952138
0.4122734555 -0.5580729101 -0.1592172629
-0.0734457232 0.0894176332 -0.3457445434
0.0315232046 0.4940992228 0.2773955540
-0.1363719060 0.5664732097 -0.0836458007
-0.4949789100 0.1703539511 0.0451969978
-0.5608481655 0.4940992228 0.3230410609
0.3684782836 0.3322265870 -0.0441794278
-0.1802692013 -0.1533913206 -0.2577851220
0.3905683016 0.1703539511 0.1328281701
-0.0386577835 0.0084813153 0.1028649893
0.2583443511 0.4131629049 -0.0425653759
0.2931381873 -0.3962002743 -0.2074014652
0.5180378389 0.5373783472 0.4581040333
-0.5593079064 0.5750355407 0.3339400766
0.0096081726 0.4131629049 0.3370840343
-0.2463454402 0.4131629049 -0.2451541163
0.3951317224 -0.7199455460 -0.1778785381
0.2827529989 0.2512902690 -0.1588591340
-0.6344369457 0.4735245869 0.3928460851
-0.0691213820 0.5750355407 -0.2162309989
-0.1455590198 0.3322265870 0.2618965123
-0.3339749009 -0.6390092281 -0.0726259855
0.6194540815 0.3660725746 0.4758943470
-0.1883432729 -0.4771365922 -0.1069671911
0.2930267822 -0.2343276385 -0.2389859507
-0.2228241609 -0.1793826534 -0.2331974495
-0.1975729739 -0.0724550026 -0.2263860865
0.0198562900 -0.2524257622 -0.3281534909
-0.0095549004 0.1703539511 -0.3953072318
-0.0292021282 -0.3880282094 -0.5044366723
-0.5980380138 0.4131629049 0.3356107945
0.4957841983 0.4131629049 0.3468632479
-0.5374030294 0.4940992228 0.2380178862
0.3719721756 0.1703539511 0.1212266998
0.0618563855 0.2949537693 0.3834399001
0.3896248548 -0.4771365922 0.0231649627
-0.5456131206 0.3322265870 0.2605539536
0.1438267311 -0.3962002743 -0.1765301869
-0.1725364475 -0.7199455460 -0.2576738538
-0.6685674181 0.4476555486 0.3952176880
-0.1267963922 0.4131629049 0.2676119644
0.4649422533 0.2233607758 0.2903690086
0.4097122274 -0.5580729101 -0.0331479179
-0.3438569658 -0.8818181818 -0.2084923379
-0.2354904253 -0.1501064184 -0.1951383439
-0.1956810629 0.6559718586 0.2748779976
0.1976016627 -0.0724550026 -0.1940936073
-0.5536421891 0.4940992228 0.2905161824
0.1658279736 -0.0543295841 -0.0706284594
0.3646347204 -0.3962002743 0.0213127171
-0.2975062689 0.2512902690 0.0696645565
-0.1627494258 0.3322265870 0.1079231323
0.2353615355 -0.8008818639 -0.1686046357
-0.5046692099 0.2512902690 0.2405875268
0.4239754218 0.3322265870 0.2493585306
0.1528697877 -0.0213602539 -0.0277683301
0.2648069211 0.2512902690 -0.2426911891
-0.0678819610 0.0894176332 0.1474800321
0.0338853172 -0.0724550026 0.0677569425
-0.5060103868 0.3322265870 0.2096979381
-0.1540506708 0.4131629049 0.2172047992
0.4405005997 0.2512902690 -0.0130179120
0.1040321233 0.5750355407 -0.1019539969
0.4030689051 -0.6390092281 -0.1032815270
0.2139690397 -0.7199455460 -0.1707199631
0.5683689476 0.3113113429 0.5206605174
-0.2718249109 0.1703539511 -0.2071162495
-0.2192462434 -0.1827092530 -0.2375220289
0.0805638060 0.3322265870 0.2058984256
-0.0281359194 -0.3060291648 -0.3978379142
-0.4517118075 0.2512902690 0.1930050694
0.2549966994 -0.7199455460 -0.2248458429
-0.0189963902 -0.0724550026 -0.3298913165
0.0706675958 0.5836805698 -0.0612762326
0.3911349027 -0.3152639564 -0.0767797365
-0.1747436468 -0.3962002743 -0.2027932382
0.1568857026 0.4131629049 0.1207938607
0.1514284118 0.1086661056 0.1412659372
0.3425180030 -0.8818181818 0.0113931097
-0.3511397501 -0.2343276385 -0.1275919228
0.3927810439 0.1703539511 0.1341595919
0.3103916400 -0.8008818639 -0.0808254935
-0.1781938696 0.5750355407 0.1931006120
0.1833407060 0.6559718586 0.3309926708
0.3516392041 -0.2343276385 -0.0973947389
0.3158686920 -0.6390092281 -0.0332469931
0.1613097561 -0.3152639564 -0.0037707359
-0.2325086910 -0.8818181818 -0.3249883363
-0.2397815200 -0.2343276385 0.0034544221
0.1737969801 0.0084813153 -0.0412698318
0.2881266722 -0.6390092281 -0.0214953158
0.2035003612 -0.5580729101 -0.1321381747
0.1053773409 -0.0724550026 -0.3082854625
0.6147603333 0.3746685446 0.4870691080
0.6155949144 0.3322265870 0.3169674567
0.3847435535 -0.7712635355 -0.1825816228
-0.2208350979 -0.8818181818 -0.3315355332
-0.3188959041 -0.2343276385 -0.0367586525
-0.3725488774 -0.5580729101 -0.1631723937
-0.0875193269 -0.0724550026 0.0514877069
0.2177250998 0.3322265870 -0.3013929895
-0.3301774787 0.3322265870 -0.1168657098
0.1764605831 -0.0724550026 -0.0718643731
0.1864371665 -0.1533913206 -0.2498647760
-0.2189629639 -0.5580729101 -0.2490682941
-0.6026988963 0.4131629049 0.3503254490
0.3843280924 -0.6390092281 -0.0496575798
0.0462990192 0.5750355407 0.0918623544
0.1905350650 0.4131629049 -0.2741620030
-0.6479228634 0.4131629049 0.1734437007
0.4847799823 0.2457234507 0.3194404859
0.1688763965 -0.0559490775 -0.0727338008
-0.2450270982 0.1703539511 -0.2891524164
0.1600606091 0.2512902690 0.1311349944
0.3175116530 0.3322265870 0.0932993551
-0.1955426104 -0.6390092281 -0.0825924517
0.1844714319 0.3322265870 -0.3331230722
-0.6069911167 0.4131629049 0.3611875664
-0.1062437644 -0.3152639564 -0.1879998768
0.0479175359 0.5750355407 0.0916931719
-0.2682871764 0.4131629049 -0.2095802108
-0.0668444061 -0.1533913206 -0.3062424292
-0.2825893732 -0.7152434781 -0.1097555482
0.2613780820 0.1703539511 -0.1677372345
0.3849870246 0.3322265870 0.1456431787
0.5119241430 0.2512902690 0.3627223111
-0.5334334884 0.3322265870 0.0322152285
0.0066107449 0.3063842182 0.4544813143
-0.1763482908 0.4940992228 0.0300929798
0.1368381698 0.4131629049 0.1779468347
0.1283629722 0.4131629049 0.2165018631
-0.0265484506 0.1703539511 -0.3850854605
-0.2570877977 -0.7199455460 -0.1204801255
-0.2517223462 0.0894176332 -0.0240178401
-0.6038522167 0.5013580988 0.4476711983
0.3260223552 -0.8818181818 -0.2497836044
0.0360161153 0.5750355407 -0.2094837793
0.4124330889 -0.4771365922 -0.0348992839
0.3453150035 -0.4771365922 -0.1630581123
-0.4989719127 0.2512902690 -0.0492735697
-0.3204436898 -0.8008818639 -0.2208161325
0.1211572813 0.0084813153 0.0490460962
0.5300013003 0.2872456887 0.3734193954
0.6081511690 0.2882550861 0.3747316119
-0.3620913818 -0.8818181818 -0.1918257082
-0.5846400746 0.5393574803 0.3823634862
-0.5477732144 0.5750355407 0.2845378431
0.0188367072 0.0084813153 0.0972087197
-0.0031718737 0.4940992228 0.2801507328
0.0899938782 -0.1533913206 -0.2925882763
-0.1072593531 0.5810320885 -0.0647192583
-0.1209735522 0.5750355407 -0.1344109825
0.2479913621 0.4131629049 0.0207592535
-0.2144957191 -0.3962002743 -0.2248398121
-0.2387041503 -0.8818181818 -0.3214996067
-0.3516353994 -0.3152639564 -0.0160096159
-0.0414618408 0.1703539511 -0.4000528145
-0.2593588015 0.2512902690 0.0828740995
-0.5805072932 0.5750355407 0.3922006972
-0.2902857768 0.2512902690 -0.1904445887
-0.4420382601 -0.8818181818 -0.0551180717
0.3500116487 -0.7199455460 -0.0706002875
0.0396635642 0.2512902690 0.3268429013
0.2352584068 -0.2343276385 -0.2655003953
0.0940711446 0.4940992228 0.1864777222
-0.0947025220 0.5750355407 -0.1623675597
-0.2645700147 0.3322265870 -0.2575805012
-0.1344349324 0.3322265870 0.2340629726
-0.0988696049 -0.2343276385 -0.2752373084
-0.1947710801 0.4131629049 0.0594947231
0.3377445913 -0.6390092281 -0.2365892206
-0.2273541650 -0.5580729101 -0.0527969748
0.2320264309 -0.7783185373 -0.1917531252
0.0643728590 -0.1533913206 -0.3036140484
-0.0835421197 0.5750355407 -0.1930692312
-0.1509474769 -0.6390092281 -0.1694765769
0.0558796370 0.1225669390 0.1593370207
0.0287063148 -0.4159466266 -0.5407306146
0.0379283741 0.0084813153 0.0891058914
0.4828540635 -0.8818181818 -0.0406973754
-0.2703300534 0.4131629049 -0.2005699476
0.1107165396 0.2512902690 -0.3865713733
-0.2733708494 0.3322265870 0.0496935302
0.3961337315 -0.8008818639 -0.1743624735
-0.5372890068 0.5750355407 0.3162440778
0.4529250982 0.2044720446 0.2658136579
-0.3920586584 -0.3962002743 -0.0599736176
0.0760590895 0.5750355407 0.0378850603
-0.2171022690 0.4131629049 0.0309124227
0.0869259441 0.1703539511 -0.3849705656
0.2524905820 -0.8085121300 -0.2310047957
0.1660328803 0.0084813153 -0.0313769574
0.2483201340 -0.1533913206 -0.1992192137
-0.1429063261 -0.3962002743 -0.1583287732
-0.2036798791 -0.8870626720 -0.3331205002
0.5498506782 0.3899747465 0.4987724742
0.0405131638 0.2394808375 0.3113250888
-0.1827902918 -0.0320384861 -0.0416500320
-0.5647577930 0.5077895859 0.3355657478
-0.0128530496 0.3203833715 0.4486458706
-0.6276472327 0.3717471796 0.3620296166
-0.0115993294 -0.3152639564 -0.4228142188
-0.5736932133 0.5750355407 0.3171514660
-0.2097744053 0.2512902690 0.0934408403
-0.2205923199 0.5750355407 0.2162166547
0.2360775899 -0.3152639564 -0.2618699964
-0.1788140842 0.4940992228 -0.2595742330
0.2006658887 0.6559718586 0.3243842487
-0.2825482791 -0.4771365922 -0.2036857662
-0.3135173185 0.2512902690 0.0668535351
0.0469735285 0.2709252947 0.3522028831
0.3092087123 -0.4771365922 -0.1683293981
0.1616423802 -0.1533913206 -0.2636512333
-0.2740639473 0.4131629049 -0.1086795102
0.3815008333 -0.3152639564 -0.0329618975
-0.0207577367 -0.1533913206 -0.3139850544
-0.1031578983 0.3048525926 0.3963083703
0.3264682772 -0.7199455460 -0.0635669108
-0.2323926479 0.4734271073 -0.2046057339
-0.3742065165 -0.5580729101 -0.1099356859
-0.6235148419 0.4131629049 0.0940855848
0.1810451536 0.0084813153 -0.2163044623
0.2986894121 -0.8818181818 -0.0671121496
-0.1388671296 0.2512902690 0.1325382442
-0.4306951334 0.3322265870 0.1248808352
-0.1279205065 0.4131629049 0.2643010686
-0.0292713309 -0.2923647035 -0.3800741146
0.5739642153 0.3864620554 0.5596198573
-0.4160216768 0.1703539511 -0.0923230152
-0.0695100832 -0.1533913206 0.0274088790
-0.4077901247 -0.8818181818 0.0171174980
0.1710189171 0.1703539511 -0.3355091225
0.1999685383 0.2512902690 0.1241678713
-0.5590736435 0.4131629049 0.0884681331
-0.0657600019 0.3322265870 -0.4018445290
0.1066787758 0.0084813153 0.0692954132
-0.0940422914 0.5750355407 -0.1922791018
-0.1318304211 0.4940992228 0.0808723473
0.4135941903 -0.5580729101 -0.0389325516
0.1707042831 0.0827056359 0.1075173267
-0.5900244798 0.2512902690 0.0436861117
0.1248808026 -0.2121082220 -0.2757406887
-0.0246203619 0.3310505199 0.4303656758
0.5411473352 0.4516906077 0.4822991077
0.5165158961 -0.8818181818 0.0602043142
-0.3857940073 -0.3152639564 -0.1010858014
-0.3749482690 0.2512902690 0.0846479417
0.6150882466 0.3739696014 0.4861604818
0.3010496642 -0.8008818639 -0.2368775220
0.3667919209 -0.6390092281 -0.0362875770
-0.3796428957 0.2512902690 0.0862977718
0.0323726635 0.5945453964 -0.0471519581
-0.2510419771 0.6559718586 0.2822117537
0.5486442755 0.3322265870 0.4523762999
-0.3251576527 -0.8818181818 -0.2253765317
0.5042920215 0.5372117252 0.4564961907
0.3805672624 0.3322265870 0.1870316730
-0.3703820820 -0.5580729101 -0.0720408106
-0.6133716342 0.2512902690 0.2294825417
-0.0752152717 0.3322265870 0.3605423030
-0.2218229570 0.1703539511 -0.3089987100
0.2034005321 -0.6390092281 -0.0730003713
0.4509947923 0.1996484870 0.2595430331
0.0641511071 0.2512902690 -0.4009213390
-0.2267845463 -0.5580729101 -0.0534015863
-0.6363868203 0.3322265870 0.0514925340
-0.5883092376 0.4131629049 0.0960068052
-0.3696479560 -0.6390092281 -0.2052098081
0.2991115734 -0.3152639564 -0.2367434600
0.1617577360 0.3785885840 -0.3278958142
0.2511644119 -0.3152639564 0.0261890855
-0.2277916115 0.4131629049 -0.2805429580
-0.1911591937 0.6559718586 0.2598728489
-0.0244877223 0.2528242564 0.4641394887
-0.5475895597 0.2512902690 0.0312335755
-0.0557301724 0.3186580031 -0.4058055694
0.2441226651 -0.3152639564 0.0250102112
-0.2779197885 0.4131629049 -0.1338560025
-0.2497098279 -0.2343276385 0.0024860722
0.4132931965 -0.5580729101 -0.1427558022
-0.0574171664 -0.2343276385 -0.0101781959
-0.3833992369 -0.4771365922 -0.0269488724
0.4213531471 0.1703539511 0.1323397248
-0.0857820335 0.2608060789 0.3390479026
-0.0401754412 0.1085598084 0.1411277510
-0.0458839785 0.2190589688 0.2847766594
-0.2518077184 -0.4771365922 0.0010494459
0.2120012652 -0.8818181818 -0.2274028481
-0.2217656551 -0.4771365922 -0.0323247322
0.4848086965 0.2512902690 0.3099293894
0.2031916446 0.6559718586 0.3230193068
0.1651337410 0.0537694811 0.0699003255
-0.1012133586 0.2686776967 0.3492810057
-0.0476481335 -0.2343276385 0.0009539718
0.1934336141 -0.3152639564 -0.2603052233
0.4873838725 0.2512902690 0.0546312956
-0.3201010419 0.3322265870 -0.1287410859
-0.2619834451 -0.3962002743 -0.2227566155
-0.0778588646 0.0084813153 -0.3488288208
-0.2720011867 -0.4771365922 0.0051116473
-0.3232328013 -0.8818181818 -0.0275762438
-0.5993735741 0.2512902690 0.2441910273
-0.1107908306 0.2742678840 0.3565482492
-0.1346971902 0.2512902690 0.1358472211
-0.2284650900 -0.8818181818 -0.0559188109
0.4197126376 0.3322265870 0.2417532061
0.0830132164 0.5750355407 -0.0107104139
-0.2809294145 -0.6390092281 -0.0544427243
-0.1869401526 0.4131629049 -0.3239225958
0.4832096575 -0.8818181818 -0.1318300082
-0.6457860186 0.2512902690 0.1168181227
-0.6372062329 0.4131629049 0.4133308638
-0.0987792305 0.2512902690 0.1458944411
-0.3547917155 -0.4771365922 -0.1281832084
0.6307549330 0.3322265870 0.3889024667
0.0807768059 0.4940992228 0.2458043370
0.1344018156 -0.3962002743 -0.1572714180
-0.2402272186 -0.7199455460 -0.3122686495
0.6293678166 0.3364851136 0.4374306476
0.3133351095 0.3322265870 0.0893057867
0.5782670654 0.3792917402 0.5619287781
0.0133326495 -0.3152639564 -0.3016233306
0.1179320212 -0.3152639564 -0.2336473653
0.4944046401 0.3322265870 0.3569510631
0.6014466650 0.2512902690 0.3010657430
0.0174676753 -0.3962002743 -0.4182632099
0.5258105804 0.2512902690 0.1125300947
-0.6816903149 0.4305554959 0.3408423677
0.5392044366 0.4131629049 0.5059660557
-0.5374447389 0.5856833406 0.3193698756
-0.2705318901 0.4131629049 -0.1923589626
0.3356400031 -0.8063409526 -0.2281822650
0.3957787780 -0.7437941812 -0.1468714623
0.4031478389 0.2512902690 -0.0597928766
0.0307628502 0.2512902690 0.2400912813
-0.2415086890 0.2512902690 -0.3109781976
0.4942313051 0.3322265870 0.0942150940
0.1312736357 0.3322265870 0.1395225197
-0.2005754096 0.4131629049 0.0438564051
-0.5409190160 0.5750355407 0.3312894329
0.3551941991 -0.7937994171 -0.2118782689
-0.3244784268 -0.7483066713 -0.1527376994
0.1644089640 0.0362246037 0.0470919849
0.2586570443 0.4131629049 -0.0403715018
0.5953205696 0.2726600042 0.5335575467
0.0960503424 0.4131629049 0.2699591359
0.1844229981 -0.1533913206 -0.2510472071
0.1332668400 0.4131629049 0.2013127506
0.4000025361 -0.7389855499 -0.1406202415
0.1668546964 -0.3152639564 0.0010195493
-0.1103221217 0.4940992228 0.2689199154
-0.1763024820 -0.2048218621 -0.2662684207
-0.6839081565 0.3923768101 0.3501208981
-0.1933338080 0.1703539511 0.1318352313
-0.1606817033 0.0084813153 -0.2999130977
-0.2763282255 0.4131629049 -0.0933494042
0.1453572515 0.0204576279 0.0265949162
-0.1570032962 -0.3962002743 -0.1841060925
-0.6285584149 0.5327981174 0.3216575403
-0.6758963591 0.3322265870 0.1860089240
-0.1589034947 -0.8818181818 -0.2894684775
-0.4878018435 0.1703539511 -0.0379835580
0.0384253066 -0.3706175371 -0.4818027982
-0.6622390012 0.3322265870 0.2370092401
0.1292719740 0.6559718586 0.2459970245
-0.1673055873 0.4940992228 0.1887558566
0.2640662552 -0.3962002743 -0.2145303511
0.3397140530 -0.3152639564 -0.2089536269
0.1836469581 0.4940992228 -0.0911826771
-0.6538713551 0.4940992228 0.3364398554
-0.1645304062 -0.7199455460 -0.2042121587
-0.0112873698 0.5750355407 0.0932006374
-0.4226827402 0.1703539511 -0.0782581122
-0.3409568221 0.2512902690 0.0704697595
-0.1077372582 0.5750355407 -0.0080620797
-0.5893548855 0.5409150637 0.3814083131
0.2429844291 -0.6390092281 -0.0359574337
0.2140933689 -0.7199455460 -0.1710672324
0.3903622958 0.2512902690 0.2320823454
0.1894640141 -0.0638970173 -0.0830661225
-0.1895936517 -0.8822533565 -0.3268683901
0.2041713099 -0.0724550026 -0.1358397848
0.0442945962 -0.3962002743 -0.5505802086
-0.6520652056 0.4940992228 0.2732997560
-0.4054319472 -0.8818181818 0.0066026788
0.3516175568 -0.3962002743 0.0206549695
-0.1800324867 0.4940992228 0.0595522202
0.0920541415 0.3388520381 -0.3795533238
-0.1068560990 -0.1533913206 -0.2949769640
-0.3833745445 -0.4771365922 -0.0264707648
0.5203656748 0.3322265870 0.3874285651
-0.2644204270 -0.4771365922 -0.2070048901
0.4215126373 -0.8818181818 -0.1665812554
0.0614796208 -0.3152639564 -0.1648044516
-0.2272194255 -0.6390092281 -0.2861502458
-0.2154156645 0.3992563968 -0.3010276575
0.1268003370 0.5580854235 -0.0945499228
-0.0229058742 0.2512902690 0.4613563249
0.4047712491 -0.4771365922 -0.0916502826
0.0537534853 0.4131629049 -0.3747585239
-0.0256495795 -0.3937782198 -0.5119116858
0.0948186999 0.5750355407 0.3221148721
0.3653718544 0.1703539511 0.1244814242
-0.1596228853 0.4940992228 0.2248873908
0.2862720694 0.3322265870 -0.1543136721
-0.1714213950 -0.5580729101 -0.1538263652
0.4026617774 -0.4771365922 0.0134401337
-0.2921176628 0.2512902690 -0.2042228425
-0.0406889926 -0.2671071411 -0.3472392834
0.3384912406 -0.7199455460 -0.2332329412
0.5776820940 0.4131629049 0.5080635263
-0.3274427760 -0.5580729101 -0.0235849304
0.4391991063 -0.8818181818 0.0081639544
-0.4527111785 0.1703539511 -0.0492492893
0.1631444249 0.5200747735 -0.1439637677
-0.1370261046 0.4940992228 0.1575984106
0.5860451626 0.4131629049 0.2130854972
0.0345919393 -0.3534399116 -0.4594718851
0.2260285620 0.1703539511 -0.2719544885
-0.6885934977 0.4131629049 0.3396022195
0.5340476362 0.5245552024 0.4632309952
-0.2206855645 -0.3962002743 -0.2262931413
-0.0158377383 0.2894574606 0.5130947715
0.0709306023 0.0084813153 0.0705264232
0.0902657032 0.3322265870 0.1672616287
-0.0483969855 0.0084813153 -0.3335045064
0.1603985727 0.0084813153 -0.0203825419
-0.1989125439 -0.0724550026 -0.0805786005
-0.1894062218 -0.1533913206 -0.2528913625
0.5680690091 0.3096740101 0.5210338580
0.4887613202 0.4131629049 0.1923876554
-0.0306681044 0.5750355407 0.0912907216
0.1393349165 0.3322265870 0.1382308275
-0.2051063717 -0.6390092281 -0.0765916591
-0.1700711963 0.1703539511 0.1408064549
0.0796991742 0.5750355407 0.0306233967
-0.0185886613 0.2553357079 0.4642195131
-0.2143360099 0.4940992228 -0.2053101165
0.0301940601 0.2843798755 0.4628123978
0.2421262671 0.4131629049 -0.1993193830
0.1322748922 0.4131629049 -0.3302580336
-0.0139912849 -0.1533913206 -0.3144206337
-0.2464401901 0.0894176332 -0.0114934748
0.5376336092 0.2054776683 0.2671209687
0.5265049838 0.4243951968 0.5517137558
0.2343789097 -0.6390092281 -0.2103748631
-0.3790837753 -0.4771365922 -0.0451861916
0.5708010748 0.2262458674 0.2941196276
-0.2412371161 0.2512902690 0.0865696049
-0.0273170267 -0.3962002743 -0.4921893006
-0.2519193212 0.1703539511 0.0655618992
0.1859930729 0.0084813153 -0.1527660026
0.1641248586 0.0580202451 0.0754263186
-0.3613461617 -0.6390092281 -0.1369796407
-0.3558537825 0.1703539511 0.0710876666
0.1709226038 0.3322265870 -0.3461007654
-0.3209944446 -0.8008818639 -0.1442951878
0.1728767018 0.0084813153 -0.2407044451
0.1862188151 0.0084813153 -0.1438986660
-0.5404736770 0.2512902690 0.2583902664
0.5229443844 0.4131629049 0.4324117791
-0.0689021667 0.5750355407 -0.2165273350
0.0192136672 -0.3220482316 -0.4186627011
0.0272894978 0.0894176332 0.1452562060
0.2708051928 -0.6544596689 -0.0307365962
0.0166842315 0.2512902690 0.4480471765
-0.0058514052 0.0942268958 0.1224949645
-0.0309098652 -0.2877816531 -0.3741161491
0.0552939874 0.5750355407 0.2745723177
0.0426524319 -0.4500480047 -0.5850624061
-0.0822605753 0.2512902690 0.3226291734
-0.2277271412 -0.1533913206 -0.2146965824
0.1137652320 0.4940992228 0.0781384322
-0.1156249615 0.4940992228 -0.3099006819
-0.0741491735 0.4131629049 0.3273796257
-0.6771755271 0.4131629049 0.3869398278
0.2496205977 -0.6390092281 -0.2201402540
-0.3582474083 -0.3152639564 -0.1727697755
0.6217713245 0.2942760978 0.3825589271
-0.1895362529 -0.7199455460 -0.1392641708
-0.1215093606 -0.0724550026 -0.3181559805
0.1736293279 0.0754726649 0.0981144643
0.5077589270 0.1931094241 0.2510422513
-0.1592523054 0.4940992228 0.1810713801
0.1815081722 0.4940992228 -0.1232657039
-0.6681203598 0.4131629049 0.2494141916
-0.2275192428 -0.5580729101 -0.2527753343
0.3902209485 -0.8008818639 -0.0573968921
0.1171784427 -0.2343276385 -0.2713292462
-0.3130813327 0.1703539511 -0.1420359292
-0.0319414562 -0.1533913206 -0.3131017185
-0.2617885608 -0.6390092281 -0.0642941119
0.4129533395 -0.4771365922 -0.0572730851
-0.0369734265 0.5750355407 -0.2287426506
-0.0403497854 0.1703539511 0.1323769342
0.4683293021 -0.8818181818 -0.1416059838
-0.5505907394 0.5656669984 0.3798720270
0.6153605457 0.4131629049 0.3892910143
-0.1394623556 0.5750355407 0.2940292492
-0.1778160294 -0.5580729101 -0.1111461001
-0.2043705381 -0.3152639564 0.0162161942
0.3820836189 0.3322265870 0.1810825887
0.0312431942 -0.0724550026 -0.3291575790
-0.0544397960 0.2225350828 0.2892956076
-0.3737882636 -0.4771365922 -0.0555098909
0.3773999387 -0.7779917157 -0.1913282570
0.0081905638 0.3198542429 0.4158105157
-0.0114365910 0.6010759783 -0.0386622015
0.0420035669 0.2512902690 0.3335166596
-0.5459746185 0.5639740788 0.3237736055
0.1950433350 -0.2343276385 -0.2655635867
0.6301539952 0.3322265870 0.2739253437
0.3408852474 0.1703539511 -0.0800115552
0.0578529393 0.0894176332 0.1532562954
0.4852274001 -0.8818181818 -0.1295853404
0.1437101735 0.4131629049 0.1492276224
0.5185812206 0.2778873982 0.3612536176
-0.3053222245 -0.6390092281 -0.0555686076
-0.1925112961 0.0894176332 0.1095864371
0.0259200066 -0.2343276385 0.0168189776
0.2165324162 0.4131629049 0.0356649745
-0.1599604813 -0.8818181818 -0.2340401712
-0.4886801537 0.1703539511 -0.0192101765
-0.3501420812 -0.7199455460 -0.1987767550
-0.3671462790 0.1703539511 0.0763615824
0.0295448616 0.5750355407 -0.2095459321
0.5555338910 0.2512902690 0.1321771306
0.4683057586 0.1880184629 0.2444240018
-0.0498700147 0.3174095114 0.4449472998
-0.1489417403 0.3322265870 0.2526289168
0.5342389950 0.4940992228 0.4051778932
0.5563175018 0.4452310217 0.5428100101
-0.2464435539 -0.4771365922 -0.0012978611
-0.5624977336 0.5586181350 0.3231298177
0.0445227794 -0.2343276385 -0.2894423967
-0.5744942882 0.4940992228 0.3415500876
-0.4185911745 0.1703539511 -0.0884943722
-0.0843581404 0.2512902690 0.4407664391
-0.1075246352 -0.0724550026 0.0169274643
0.2978660790 -0.8818181818 -0.2632213668
-0.0809132424 0.2434512761 0.3164866589
0.3837527989 -0.5580729101 -0.2071812943
0.2885585882 -0.8008818639 -0.0924769362
-0.2611348498 0.2512902690 -0.2882773274
-0.2698258016 0.4131629049 -0.0533342956
-0.0059089636 0.1703539511 0.1249554678
0.3619899629 -0.5580729101 0.0000043238
-0.1765504176 0.4940992228 0.2053091624
-0.3542948632 0.2512902690 -0.1515699218
-0.1749836868 -0.3152639564 -0.2471665810
0.1698010523 0.2512902690 -0.3579490266
-0.1685878347 -0.8151747244 -0.2396661684
-0.0511967507 0.4131629049 -0.3846285096
-0.2355247365 -0.1460167513 -0.1898217767
0.1313957031 -0.3152639564 -0.0362750603
0.1693022952 0.3322265870 0.1549890906
-0.0651184490 -0.1533913206 0.0349498078
0.0865914181 0.5750355407 -0.0451544167
0.4577122500 0.2155790185 0.2802527240
-0.6063680718 0.5078079470 0.4457568337
-0.2296968223 -0.7123935966 -0.1060507022
-0.1896272867 -0.4771365922 -0.0975143365
0.4402464119 0.4131629049 0.2595289927
-0.1268971476 0.5687464723 -0.0806905594
0.3191311212 -0.6390092281 -0.0341981815
-0.3188314577 -0.6390092281 -0.2752334792
-0.6518432955 0.4940992228 0.2705258465
0.6124716628 0.2921636196 0.5307397741
0.6075980551 0.3322265870 0.3262859610
0.5623341410 0.3322265870 0.4939314218
-0.0260472310 -0.1533913206 0.0500176759
-0.0115012157 -0.3152639564 -0.4227628159
0.2922066485 -0.3962002743 -0.2077167651
0.5065426041 0.2512902690 0.3607472848
0.0813323811 0.5750355407 0.0090268051
-0.2977749936 0.3322265870 0.0293475788
-0.6273406207 0.4670715413 0.3953109055
-0.0152264718 0.2512902690 -0.4086525527
0.1025534219 0.5750355407 -0.1166979066
0.2656991930 -0.6390092281 -0.0259191179
0.2361748117 -0.7817488434 -0.1962125230
0.0681655835 0.5750355407 0.0484018245
0.0281647822 0.2512902690 0.3747723412
-0.0831940149 0.2512902690 0.4500641157
-0.1422911566 0.3322265870 0.2675844301
0.4610791900 0.1703539511 0.0763286844
0.3254563532 -0.4771365922 0.0112343923
0.0163782266 0.5750355407 -0.2253164050
-0.0330334396 -0.3205945254 -0.4167728831
0.1417543232 0.0894176332 -0.3311694904
-0.1929250197 0.1703539511 -0.3366438020
-0.1325669153 0.4940992228 0.1498775689
-0.2517722960 0.4131629049 0.0037829500
0.2726696349 0.1703539511 -0.1285776942
-0.1572335633 0.3322265870 -0.3735531208
0.1272066497 0.5578514296 -0.0948541149
-0.2288563224 0.1703539511 -0.3070881432
0.6133846750 0.3026409541 0.5282300019
-0.2270896383 -0.3962002743 -0.2268455627
-0.1880871069 -0.7199455460 -0.2816398427
0.3532284391 -0.6390092281 -0.2318891000
-0.5895651287 0.4940992228 0.4132120376
-0.1925967113 0.0084813153 -0.0249508358
0.4752264069 0.2340026642 0.3042034634
0.1837759786 0.0084813153 -0.0703098737
0.1779962657 -0.1533913206 -0.0187856458
-0.2103750289 -0.0724550026 -0.1136301371
-0.1495062746 -0.3152639564 -0.2313398817
-0.0543551491 0.0084813153 -0.3348310817
0.6127366364 0.3322265870 0.1636237697
0.5351861521 0.5169491284 0.4652691356
-0.1737969721 -0.5580729101 -0.1212354783
-0.3353951892 -0.2343276385 -0.1877748030
0.0942296691 0.0894176332 0.1542165963
0.5892468667 0.4131629049 0.3196152512
-0.2730146934 0.4131629049 -0.1736515492
-0.3700000553 -0.4771365922 -0.0707053059
-0.2563223558 0.1703539511 -0.2710524911
0.6103376666 0.2512902690 0.1789074906
0.3717882388 -0.7199455460 -0.2157625347
-0.5417495217 0.5750355407 0.3319454797
0.4018959033 0.2512902690 -0.0613184619
0.2152345629 0.2512902690 0.1271402586
-0.2358338094 -0.8818181818 -0.0407894096
0.2741734481 0.3322265870 -0.1995696955
-0.1175983094 0.4940992228 0.2753854892
-0.6884839285 0.4033202286 0.3468359509
0.4740224960 0.3322265870 0.3358995638
0.5235292197 0.5350091256 0.4593553044
0.5120638099 -0.8818181818 0.0654927507
0.3021130381 -0.3152639564 0.0256070667
0.5671159269 0.3928565779 0.5107135513
-0.5505315152 0.3322265870 0.2666623671
-0.0852348989 0.3322265870 0.3451159709
0.3786347322 -0.3152639564 -0.1462123825
-0.6468994928 0.4940992228 0.2993969274
0.2265809250 0.3322265870 -0.2934843703
0.0716592944 0.3322265870 -0.3950595703
0.0865129208 0.5750355407 0.3159327623
0.3341076474 -0.6390092281 -0.0328857830
-0.1498833804 0.4940992228 0.1726158806
0.4892094729 0.2512902690 0.0351957737
0.1674225072 0.5750355407 0.2565554256
-0.2497277550 -0.3152639564 -0.2551182636
0.2593126387 -0.6587908561 -0.0363671396
0.2862757008 0.1703539511 0.0870704972
0.5930142604 0.4131629049 0.2341084852
-0.5632539880 0.4940992228 0.3287010874
-0.2673760568 0.0894176332 -0.1938276636
-0.2405916079 -0.7159463418 -0.1106692710
-0.5953509091 0.4940992228 0.3699565980
0.1199957205 -0.0724550026 -0.2962400491
-0.4937666780 0.1703539511 0.0955193335
0.3896329007 0.2512902690 -0.0769307433
-0.5764998969 0.3322265870 0.0197487993
-0.1465532162 0.4940992228 0.2278258771
0.2110142858 -0.3152639564 -0.2603058801
-0.0760017689 0.0084813153 -0.3478077626
-0.1021145177 0.4131629049 0.3331265052
0.5693841057 0.3920780576 0.5097014749
0.6021429854 0.2512902690 0.2377420305
0.0803718789 0.5750355407 0.0211153291
0.5123454353 -0.8818181818 0.0651447012
-0.0808595239 0.2512902690 0.1500082468
-0.2207639515 -0.2343276385 -0.2486555764
0.2397048304 0.3322265870 -0.2671646578
0.4602893836 0.2186758743 0.2842786366
0.3105519249 -0.8818181818 -0.0399800503
-0.1341367592 -0.2343276385 0.0025866749
0.0716077677 -0.0724550026 0.0324265418
0.3806920004 0.2512902690 0.1990341940
0.4492582907 0.4131629049 0.3009842662
0.5651795056 0.4940992228 0.4068631988
-0.1039478705 0.2512902690 0.1450757707
-0.3797525145 -0.3152639564 -0.0583563164
0.2398729061 -0.1740161157 -0.2262209505
0.5628730695 0.3322265870 0.5011083528
0.3891042615 -0.7199455460 -0.1934958292
0.0625066344 -0.2343276385 -0.2788441023
0.0030952997 -0.3028235317 -0.3936705913
-0.0747840075 0.2508258537 0.4586035351
0.0652180369 0.3322265870 0.3190793535
0.3363568154 -0.8008818639 -0.0665597225
0.0428601118 -0.3962002743 -0.5340914076
-0.1135042448 -0.2343276385 -0.2747774330
-0.2594613309 -0.2343276385 -0.2443508910
-0.0959528163 0.5750355407 -0.1913606172
0.3911574536 -0.3152639564 -0.0765766899
-0.1398721765 -0.3152639564 -0.2200575177
-0.6669772656 0.3322265870 0.0848072985
-0.2067873460 -0.7359896981 -0.1367256341
0.4762913523 0.2512902690 0.2948794122
0.0476277016 -0.2343276385 -0.0055907095
-0.2125947875 0.4940992228 -0.1714514028
-0.0044177690 0.3322265870 -0.4057396731
-0.5937660203 0.4921557205 0.3930688127
-0.5472366018 0.5967524437 0.3154275763
0.3125422258 0.2512902690 -0.1229133589
-0.2945429196 0.3322265870 -0.1787734893
-0.3206441582 -0.5580729101 -0.0214427409
-0.1600690543 -0.6390092281 -0.1227652156
0.3851613843 0.2512902690 0.2196351410
-0.0457149206 -0.2343276385 0.0084522731
0.1704861704 0.0649344188 0.0844147444
-0.2076734311 0.4940992228 -0.0854961419
-0.2882565418 -0.7136181430 -0.1076426126
0.1149460005 0.1703539511 0.1612212805
-0.5396352472 0.5900331765 0.3180195556
0.5464086505 0.4131629049 0.5298541897
-0.1088856704 0.3005360276 0.3906968359
0.4594341481 -0.8818181818 0.0325526182
-0.2841725875 -0.4771365922 0.0080978122
-0.2180113044 0.0894176332 0.0753319297
-0.3922704784 -0.8818181818 0.0286431742
-0.0580374554 -0.2343276385 -0.3056143909
0.1387811562 0.4940992228 -0.2517013386
0.1780520967 0.4131629049 0.0735439603
0.4966998346 0.3322265870 0.3597105918
-0.2257150955 0.1703539511 0.1086250294
0.0706387328 -0.2215222789 -0.2879789625
0.0315526911 0.2512902690 0.2575087852
-0.1632004371 0.2512902690 0.1151695361
-0.2765793386 0.4131629049 -0.0893128861
-0.0783687162 0.4940992228 0.2661506452
0.2329400528 0.0894176332 -0.1087036612
-0.2793400097 -0.6390092281 -0.0547744001
0.2622073729 -0.5580729101 -0.2086460692
-0.1167514359 0.4131629049 0.3096330218
0.0958020998 0.5750355407 -0.0680078994
-0.1753734267 0.4940992228 0.2194647378
0.2841229528 0.3322265870 -0.0809048502
0.2983022623 -0.8818181818 -0.0678894686
-0.3424116791 -0.4771365922 -0.1531466757
0.1886526229 -0.1533913206 -0.0235996325
-0.3481931670 -0.2343276385 -0.1028950820
-0.2531130191 -0.8686889990 -0.3092347254
-0.1999695782 0.5042390009 -0.1645502722
0.2494147815 0.4131629049 -0.0623339325
0.2696803795 0.3322265870 -0.2275099439
0.2454397277 -0.7199455460 -0.0806863832
-0.1619129031 0.4131629049 0.1865509612
-0.0272978008 -0.3962002743 -0.4752344517
-0.1896798408 0.4940992228 -0.2493575326
0.2216553789 -0.8818181818 -0.2524058914
0.1610346684 -0.3962002743 -0.0911807774
0.1651250464 -0.0724550026 -0.0615998970
0.3321592023 -0.2343276385 -0.2021323138
0.4525331365 0.1986315111 0.2582209645
-0.1671530360 -0.7199455460 -0.2346376593
-0.2602292201 -0.4771365922 -0.2067464142
-0.2057726742 -0.7420647594 -0.1446232139
-0.2637687906 -0.3962002743 -0.2222676431
-0.4282027196 0.2512902690 0.1205974237
0.5123402459 -0.8818181818 0.0320206545
0.1134602663 0.6559718586 0.2731420682
0.3756268133 -0.5580729101 -0.0110533707
-0.3723954802 0.3322265870 -0.0780809760
-0.0470775361 -0.2343276385 0.0021272064
0.1624263986 0.5144721780 -0.1512471419
-0.1923784674 0.5750355407 0.2366440721
0.1707572666 0.0084813153 -0.0373840427
-0.2518550988 0.1703539511 0.0657412976
-0.3017871092 -0.5580729101 -0.2621136063
-0.1838437160 0.3619106852 -0.3495770826
0.0241179233 -0.3962002743 -0.4413898446
0.2409668609 0.3322265870 0.0969565225
-0.4928457753 0.3322265870 0.0300096470
-0.3457801451 -0.3152639564 -0.1930082859
0.4727609243 0.1869798988 0.2430738684
0.4179552385 -0.5580729101 -0.1010558403
0.0751553994 0.5750355407 0.3095707659
-0.2250916287 -0.1533913206 -0.2199933185
0.1981209856 -0.6390092281 -0.1391243303
0.2243994854 -0.7698003593 -0.1806794938
0.2243845142 0.1703539511 -0.2749754734
-0.0401850310 0.3298964930 0.4288654409
0.1971749677 0.4435301899 -0.2434717265
0.3168022533 -0.7199455460 -0.0596032571
-0.2141774054 -0.7286650131 -0.1272035437
0.0206895038 0.5948800409 -0.0467169202
0.2141352522 -0.7551217726 -0.1615973310
0.0788136823 0.0084813153 0.0723828102
0.0313564310 -0.3467439214 -0.4507670978
0.2357319065 -0.1192791033 -0.1550628342
0.3412231154 -0.8008818639 -0.2225738674
-0.6654897406 0.3780023693 0.3559247182
0.3479648234 -0.3962002743 -0.1742425820
-0.1901782758 -0.4771365922 -0.1359278610
0.2652263308 -0.8818181818 -0.2698023843
-0.2036027108 0.4940992228 -0.2299170383
-0.1666090397 0.5750355407 0.3082461892
0.4975303148 0.4131629049 0.3647026518
0.4955129581 0.4341517703 0.5643973014
-0.1514948121 0.4131629049 0.2284839742
0.2919346534 0.2512902690 -0.1388098365
-0.1001106965 -0.1533913206 -0.2989803217
-0.0783633552 -0.1533913206 0.0214237168
0.2009140055 0.0894176332 -0.2579190919
-0.0337620255 -0.3275546279 -0.4258210163
-0.1422845868 0.0894176332 -0.3393958699
-0.2118224912 -0.5580729101 -0.2412259994
-0.2267101945 0.0894176332 0.0636749421
0.5327885457 0.3034466882 0.3944806947
-0.3617345705 -0.3962002743 -0.0012116226
0.1838838632 0.0084813153 -0.0640764454
0.3896042605 0.3322265870 -0.0221317074
-0.2549373959 0.0894176332 -0.0433866026
-0.6280618655 0.4606786292 0.4549359079
0.0375998296 0.3152804523 0.4098645880
-0.2302072463 -0.3962002743 0.0176334563
0.6120062281 0.4131629049 0.4453919988
0.1174573318 0.2512902690 -0.3870307231
-0.1036035594 0.5750355407 0.0514544083
0.2879147344 0.3322265870 -0.1260553604
0.5777145740 0.2306919532 0.2998995391
-0.1662808837 -0.8818181818 -0.2175110159
0.1971821380 0.3322265870 -0.3224631195
-0.1304067268 0.0894176332 -0.3433461014
0.1041711306 0.5750355407 0.2864773439
-0.5704584991 0.5868600978 0.3151140351
0.2018019387 -0.5580729101 -0.1225842496
0.4143831182 -0.5580729101 -0.1340055604
-0.0580497380 -0.2351863345 -0.3057422348
-0.4055996221 0.1703539511 -0.1014208947
-0.2397931347 0.1703539511 -0.2951905361
0.1397645080 -0.3152639564 -0.0129718477
0.3824628258 0.3322265870 0.1795704358
0.4898643399 -0.8818181818 0.0576999415
-0.2326275008 0.6559718586 0.2459911887
0.5824150181 0.4482576247 0.4881094754
0.2089802384 -0.8818181818 -0.2123459738
0.3785656792 0.3322265870 -0.0315276308
0.4122631115 -0.4771365922 -0.0635214172
-0.2682027724 -0.3962002743 -0.2205929687
-0.3292347320 -0.3962002743 0.0237990722
-0.1953585278 -0.0724550026 -0.2306623275
-0.2499361826 0.0894176332 -0.2372021107
-0.6074030565 0.3977725613 0.3579525723
0.3671295937 -0.8008818639 -0.0609640583
0.1851446713 0.4940992228 -0.1549668421
0.1826353807 0.0084813153 -0.0859135673
0.0803854606 0.4940992228 0.2465271227
0.2947724346 0.3322265870 -0.0724384724
0.5106187867 0.2512902690 0.3621752907
-0.6390667787 0.4940992228 0.4029363717
-0.1230068984 0.4940992228 -0.3071361978
-0.2554928643 0.0894176332 -0.0531740153
-0.6464267785 0.4131629049 0.1649346845
-0.1160128479 0.4131629049 0.3150132030
-0.3255038205 -0.6390092281 -0.0620822246
0.3446731884 -0.2343276385 -0.1855944495
-0.0698978916 0.2512902690 0.1992531260
0.4974483211 0.4131629049 0.3609153048
-0.4124449195 0.2512902690 -0.1122499658
0.2562847722 0.4131629049 -0.0177808292
-0.6291623778 0.4598951292 0.4549997214
0.3885652925 -0.3152639564 -0.1227071609
0.1747332308 -0.3152639564 0.0054925109
0.1775547766 0.3322265870 -0.3354752314
0.4923915074 -0.8818181818 -0.0524960800
0.4026196061 -0.3962002743 -0.0650125028
-0.3315235202 -0.3962002743 -0.1893174067
-0.5703907162 0.5796728444 0.3739945682
-0.1720915403 -0.7199455460 -0.1715165786
0.1441870437 0.4131629049 0.1554260661
-0.1221957884 -0.3152639564 -0.2066687227
-0.1229113436 -0.0724550026 0.0053452001
-0.0205401715 0.1703539511 0.1320730051
0.0946190586 0.1703539511 -0.3812563763
0.1908271948 0.4807187171 -0.1951266412
-0.1209205053 0.4131629049 0.2958029485
-0.0828065926 0.0894176332 0.1492626597
0.0914239770 0.4940992228 0.1461890180
-0.2645327218 -0.7303908466 -0.1294471272
0.0053661550 0.5750355407 -0.2286044150
-0.1721920942 -0.5580729101 -0.1284065644
0.6095902798 0.3322265870 0.5004016669
-0.1296940375 0.4940992228 0.1267939337
-0.0529664576 0.2512902690 0.4579799085
0.1039372210 0.5750355407 0.2971024576
-0.1920905134 0.6559718586 0.2551743243
-0.2795193935 0.4131629049 -0.1613159190
-0.3703710075 -0.3152639564 -0.1539783478
0.2123720660 0.1703539511 -0.2871080924
-0.2318535912 -0.8810951714 -0.3253627495
0.1140874682 0.4940992228 0.2260925087
0.2465990986 -0.4771365922 -0.0443022488
0.3274138817 0.2512902690 -0.1122471024
0.1672588734 0.3322265870 0.1541666793
0.2340950018 0.0894176332 -0.0917706538
0.0139657150 -0.2664804556 -0.3464245923
0.0188800048 -0.3962002743 -0.5846501063
0.3918483973 -0.5580729101 -0.0215074144
0.3720328145 0.2512902690 -0.0901845736
-0.0806963328 0.2512902690 0.3244633827
-0.4743866505 0.3322265870 0.0362758202
-0.2438787942 0.4131629049 0.0115576527
0.3081278760 -0.6390092281 -0.2387600110
0.2791082394 0.1703539511 0.0795466864
-0.0710009143 0.2512902690 0.1694309348
-0.6302247217 0.2512902690 0.1759430858
0.1447234384 -0.0724550026 -0.0305800431
-0.5422733812 0.5750355407 0.2929498320
-0.3036253236 -0.8008818639 -0.1111983414
-0.1869866050 -0.5580729101 -0.2149241291
-0.3209535197 -0.7199455460 -0.1320777170
-0.1701665688 0.0894176332 -0.3246218608
0.0654473963 -0.3152639564 -0.1741965475
-0.4276756816 0.1703539511 0.1016176261
0.0408516914 -0.4543417083 -0.5906442208
0.2588806183 0.4131629049 -0.0309782437
-0.3399808706 -0.6390092281 -0.2579612312
0.5211420580 0.4243091721 0.5438194192
-0.3183232958 -0.3962002743 0.0273537595
0.6317129160 0.3308761773 0.4301390305
0.0349171400 -0.4050984003 -0.5266279204
0.0121092973 -0.3152639564 -0.3000346011
0.4570857719 0.1703539511 0.0917267183
-0.5525496351 0.5747755952 0.3773598103
-0.0272104246 0.3205553714 -0.4033389905
0.1342110072 0.4131629049 0.1824002640
-0.6105714288 0.4131629049 0.3695479055
-0.1834002188 0.4940992228 -0.2486812947
0.2550758032 0.4131629049 -0.1404821258
-0.5878307486 0.4940992228 0.4300717017
0.1730291396 -0.2033607529 -0.2643689788
-0.1157790834 0.5750355407 -0.0758865524
0.0695347733 0.4131629049 0.3150298061
-0.3821285056 -0.3962002743 -0.1236551320
0.0757746088 0.0894176332 0.1550672576
-0.1799210522 -0.8818181818 -0.3224967932
-0.4439981525 0.1703539511 0.1057093270
0.5219619592 0.4131629049 0.4461462664
-0.2400122307 -0.4771365922 -0.2027893624
0.2484990565 -0.8005205206 -0.2206157035
-0.3621598320 0.3322265870 -0.0852012200
-0.0580059715 -0.3152639564 -0.3279892020
0.0218040405 -0.4195794138 -0.5454532380
-0.6798466625 0.3322265870 0.1100169590
-0.0630796147 0.5750355407 0.0811178553
0.4354774054 -0.8818181818 0.0042181650
0.3900238250 -0.8818181818 -0.1905616481
-0.0580630611 0.2512902690 0.4578747761
-0.2335150362 0.1703539511 -0.3033008046
0.1594348386 0.4131629049 -0.3098755826
-0.5544451719 0.5537541320 0.3823877116
0.0771907913 -0.0724550026 0.0298722611
-0.6661563068 0.4126148065 0.4042672068
0.0098646750 -0.0724550026 0.0720217655
-0.1191804839 -0.1533913206 -0.2876163233
0.1174397667 0.4131629049 0.2390501882
-0.2932783972 -0.6390092281 -0.2887263061
-0.1146438241 0.4131629049 -0.3682454574
0.4781726359 0.1857710161 0.2415023209
0.4211235761 -0.8818181818 -0.0007831912
-0.5552009913 0.5750355407 0.3744975298
-0.0276695966 -0.3962002743 -0.4902112555
0.3801670884 -0.7199455460 -0.2073146109
0.2459894637 -0.3962002743 -0.2199978191
-0.2439072914 -0.6390092281 -0.2883395169
0.2529209097 -0.8008818639 -0.2256882954
-0.5228359458 0.3322265870 0.2287783351
-0.0896437632 0.3093094455 0.4021022791
0.2079996844 -0.6390092281 -0.0659953659
0.5156651877 0.4533293827 0.5359071421
0.2902061814 0.2512902690 0.1183978979
0.0990891763 0.1703539511 0.1612199403
0.0335671379 -0.3513736419 -0.4567857345
0.0282452064 0.2291460085 0.2978898111
0.2503918141 -0.3152639564 -0.2582666549
0.4149465091 -0.6390092281 -0.1503936404
-0.6164870259 0.2512902690 0.2246188760
-0.0333501087 0.0084813153 -0.3335098268
0.0038681238 -0.0724550026 -0.3265906201
0.1954681940 -0.6390092281 -0.0912935575
-0.1460417227 0.4940992228 0.0684234153
-0.2024764879 0.0084813153 -0.0543501528
-0.0063864310 0.3322265870 0.4117614872
-0.2332335466 -0.8818181818 -0.3245967842
-0.2349143092 -0.7119887176 -0.1055243595
0.1359543321 -0.0724550026 -0.2809361466
-0.5674167514 0.5910418087 0.3144336171
-0.1675749984 0.2512902690 0.1148674312
-0.1430820249 0.4940992228 0.2288955006
0.3826663748 -0.6390092281 -0.0483238957
-0.2454781896 -0.7199455460 -0.1212457751
0.1144880817 0.2512902690 0.1381517667
0.3527301048 -0.2343276385 -0.1141794864
-0.3039089907 -0.3962002743 0.0288602819
0.2249196046 -0.7705239949 -0.1816202201
-0.2788841436 0.1703539511 -0.1818493475
0.2344301477 -0.7199455460 -0.0901111170
-0.3421372989 -0.7199455460 -0.1735454249
0.2560308407 -0.3962002743 -0.2172061118
0.2873795245 -0.6518125393 -0.0272953278
-0.2290449928 -0.7207529550 -0.1169178682
0.1304240617 -0.3962002743 -0.1177603941
0.2320996223 0.3322265870 0.1127681899
-0.1842753149 0.0141842190 0.0184394847
0.2662549215 -0.1533913206 -0.1385531069
-0.2482451008 -0.8818181818 -0.3127193226
-0.2052547186 0.0894176332 -0.2946737375
0.6117755923 0.4131629049 0.4466537246
0.1454173598 -0.0724550026 -0.2724754569
0.2892565155 -0.8281385339 -0.2565191207
-0.3038132059 -0.3152639564 -0.2340447495
0.4559120742 0.2512902690 0.0047091594
0.1532443492 -0.3152639564 -0.2490955295
-0.1781404076 -0.3962002743 -0.0250548829
-0.1388979738 -0.1533913206 0.0093353931
0.3517615490 -0.2343276385 -0.0965571666
0.4049429968 -0.8008818639 -0.0613617468
0.5688140632 0.3892250206 0.5583110977
-0.2696145931 0.0894176332 -0.1828625788
0.1343280950 0.0084813153 0.0275377931
-0.6401092611 0.4081679812 0.4085045587
0.1455751620 0.0094709234 0.0123122005
-0.6223051337 0.3322265870 0.0394073716
0.1247214793 -0.1533913206 -0.2771552554
0.0811372385 0.3290966331 -0.3922353503
-0.0564997539 0.2935804135 0.5071845914
-0.2010208792 -0.4771365922 -0.0614045451
-0.1328598331 0.4940992228 0.0786964699
0.5453432385 0.3849971547 0.5565515652
0.1903904373 0.0894176332 -0.2865546187
-0.0572997153 -0.2343276385 -0.3064711735
-0.6252807666 0.3736991059 0.3618256110
0.5508625883 0.4297226269 0.5460325191
0.4566943076 0.3322265870 0.3100656939
-0.4064768842 -0.8818181818 0.0104680974
-0.0285809351 -0.2343276385 -0.3299646361
0.1423586124 0.3539358828 -0.3599443257
-0.0882725265 0.4940992228 -0.3290546340
-0.3831491649 -0.3962002743 -0.0348981823
-0.3029385725 -0.8344585456 -0.2647351359
0.0760601359 0.4131629049 0.2969867362
-0.3217564866 -0.7584660228 -0.1659448563
0.3908554422 -0.7505738134 -0.1556849840
0.2781539750 0.2512902690 -0.1922758359
0.2826491589 0.3322265870 -0.0842408568
-0.3899300079 -0.8818181818 -0.0295808353
-0.0064740022 -0.2343276385 0.0222587697
0.0384009001 -0.3152639564 -0.3468183927
-0.3504218830 0.1703539511 -0.1303675745
0.4185688513 -0.8818181818 0.0051164483
0.1066721416 0.3322265870 0.2599007542
0.2189403928 -0.7199455460 -0.1116657141
0.1611900596 0.3775773249 -0.3292104509
-0.2626634920 -0.3962002743 -0.2225483180
-0.5496898860 0.4940992228 0.2123106172
-0.1523397200 -0.6390092281 -0.1441922727
0.1712037474 0.0817792032 0.1063129641
-0.3814515824 -0.3152639564 -0.1270677287
-0.0675891004 -0.2343276385 -0.0097847875
-0.0188557870 -0.0724550026 -0.3298730739
-0.2822144052 -0.7199455460 -0.3083059488
-0.2677445520 -0.1533913206 -0.1199878356
0.1877887568 0.4090433867 -0.2883045706
-0.1040274213 0.0894176332 0.1495349016
0.0467122031 0.2512902690 0.1703747060
0.2281892820 0.0894176332 -0.0075962501
0.3537254171 -0.2343276385 -0.1193625044
0.3729809968 -0.8008818639 -0.1996581585
0.2051629778 -0.5580729101 -0.1412223084
0.1747662720 0.0699270412 0.0909051535
-0.1348357071 0.3322265870 0.1434914603
-0.5961526323 0.5095257308 0.3884399167
-0.3041141717 0.2512902690 -0.1785763429
0.2607198294 -0.3152639564 -0.2528095975
0.3776441915 -0.7199455460 -0.0864198951
-0.5325107174 0.2512902690 0.2569884853
0.0463603736 -0.2343276385 -0.0049955037
-0.6854982853 0.4131629049 0.3579896081
0.0254336131 -0.4624488172 -0.6011834623
-0.0303629218 0.2123909590 0.2761082467
0.3121335716 -0.5580729101 -0.2274086863
-0.2843863976 0.1703539511 -0.1719964996
-0.5998641125 0.4940992228 0.1949332104
-0.3165785220 -0.6390092281 -0.2769610311
-0.2922151394 0.2512902690 -0.2036942053
-0.0187343261 -0.0724550026 -0.3298461223
-0.2023802386 -0.0724550026 -0.2136381001
0.0366142476 -0.3152639564 -0.3258084086
0.3960804911 -0.7283272062 -0.1267643947
0.2452168072 -0.7932420454 -0.2111536857
-0.3297908765 -0.8008818639 -0.1673391567
-0.3883013183 -0.3962002743 -0.0983178502
0.1131579327 0.4940992228 0.2352373417
0.4884961571 -0.8818181818 -0.0526573251
-0.1922501301 -0.8008818639 -0.2903616658
-0.0824468146 0.4940992228 -0.3317524302
0.0385790923 -0.3152639564 -0.3350901974
-0.1816374853 -0.8008818639 -0.2417100826
-0.2237373646 -0.3152639564 0.0211847920
0.6081444414 0.2512902690 0.1905322583
-0.2059137053 -0.8818181818 -0.1392982795
0.0719341844 0.5750355407 -0.1924584551
-0.6386448763 0.5106682436 0.3830552192
0.0602654929 -0.2343276385 -0.0095537534
-0.0270530308 0.3322265870 0.4185448094
-0.3628473095 -0.6390092281 -0.1254530920
0.5103179711 0.2695959348 0.3504747152
0.4050381604 -0.6390092281 -0.0806269883
0.1715509948 0.4131629049 -0.3047181909
0.3327954447 -0.2343276385 -0.2014534652
-0.1763066346 0.0084813153 0.0164083155
0.1056473708 0.4940992228 0.2181109582
-0.0321899861 0.3242126513 0.4453681183
0.2889347011 0.3322265870 -0.1394655907
-0.3679133690 -0.5580729101 -0.1414534636
0.2713359912 -0.3152639564 -0.2471842375
0.2324706618 -0.3962002743 0.0103559000
0.0369650757 -0.2332032420 -0.3031642146
0.0001230043 -0.4416634269 -0.5741624549
-0.4873023090 0.2512902690 0.2038866470
-0.6315487338 0.5160032025 0.3825730166
0.4353896409 0.2512902690 0.2437618730
-0.1121131369 0.2944945117 0.3828428652
-0.4562996367 0.3322265870 0.0625317955
0.1568768891 0.4940992228 0.0256355570
0.5423788724 0.3532898645 0.5641226638
0.0597419872 0.4940992228 -0.3294275469
-0.2490069689 -0.7199455460 -0.1212231850
-0.5795713696 0.5750355407 0.2976704858
0.4040024437 0.1703539511 -0.0086665078
0.4566114922 0.3322265870 0.0366712768
0.0283823488 0.2512902690 0.1895223406
0.2601954900 -0.8818181818 -0.1261729498
0.1855683344 0.4131629049 -0.2798408906
0.3441078027 -0.2343276385 -0.0609108558
-0.3536851330 -0.6390092281 -0.0926883853
0.2452563885 -0.8008818639 -0.2164219055
0.0238637978 0.1150729106 0.1495947838
-0.3084678941 -0.2343276385 -0.2203918593
0.3893493509 -0.3152639564 -0.0879073950
-0.0346592674 -0.2771092141 -0.3602419783
-0.2741416020 -0.7199455460 -0.3110986206
0.1924385953 -0.6390092281 -0.1134933439
0.2165888262 -0.3962002743 0.0039387230
-0.4213974143 0.1703539511 -0.0806679706
-0.1146647022 0.2811713132 0.3655227072
0.1004960871 0.5750355407 -0.1237831613
-0.0673279421 0.2512902690 0.2531520925
-0.2447055284 0.4131629049 -0.2521942832
-0.0250077739 -0.3152639564 -0.2875972765
-0.1992186271 -0.8818181818 -0.3307465342
0.0321997450 0.2512902690 0.2464752169
0.4274509478 0.3322265870 0.2582780406
