ply
format ascii 1.0
comment n_points_per_edge=5 
element vertex 585
property float x
property float y
property float z
property float nx
property float ny
property float nz
element face 0
property list uchar int vertex_index
end_header
0.1973852697 -0.0753693616 -0.0979801701 0.9534489822 0.0045308019 0.3015203313
0.1966171567 -0.0735223451 -0.0955790487 0.9534489822 0.0045308019 0.3015203313
0.1958490437 -0.0716753286 -0.0931779272 0.9534489822 0.0045308019 0.3015203313
0.2011252786 -0.0820846534 -0.1067100494 0.8880059270 0.4188071994 0.1898578506
0.2005743328 -0.0813293387 -0.1057281403 0.8924963104 0.4118230154 0.1839895105
0.2000233871 -0.0805740240 -0.1047462313 0.8924963104 0.4118230154 0.1839895105
0.1994724414 -0.0798187094 -0.1037643222 0.8924963104 0.4118230154 0.1839895105
0.1989214956 -0.0790633947 -0.1027824131 0.8924963104 0.4118230154 0.1839895105
0.2067385228 -0.0895732743 -0.1164452566 0.5829663060 0.7991536029 0.1466417576
0.2053352118 -0.0877011191 -0.1140114548 0.8880059270 0.4188071994 0.1898578506
0.2039319007 -0.0858289638 -0.1115776530 0.8880059270 0.4188071994 0.1898578506
0.2025285896 -0.0839568086 -0.1091438512 0.8880059270 0.4188071994 0.1898578506
0.2011252786 -0.0820846534 -0.1067100494 0.8880059270 0.4188071994 0.1898578506
0.2125694002 -0.0930075524 -0.1209098181 0.6257871319 0.7744977454 -0.0924321798
0.2111116808 -0.0921489829 -0.1197936777 0.5829663060 0.7991536029 0.1466417576
0.2096539615 -0.0912904133 -0.1186775373 0.5829663060 0.7991536029 0.1466417576
0.2081962422 -0.0904318438 -0.1175613970 0.5829663060 0.7991536029 0.1466417576
0.2067385228 -0.0895732743 -0.1164452566 0.5829663060 0.7991536029 0.1466417576
0.2241955525 -0.1041264496 -0.1353643845 0.6257871319 0.7744977454 -0.0924321798
0.2212890144 -0.1013467253 -0.1317507429 0.6257871319 0.7744977454 -0.0924321798
0.2183824764 -0.0985670010 -0.1281371013 0.6257871319 0.7744977454 -0.0924321798
0.2154759383 -0.0957872767 -0.1245234597 0.6257871319 0.7744977454 -0.0924321798
0.2125694002 -0.0930075524 -0.1209098181 0.6257871319 0.7744977454 -0.0924321798
0.2258951862 -0.1061175234 -0.1379527805 0.7527543042 0.6581918868 -0.0120165569
0.2254702778 -0.1056197550 -0.1373056815 0.7527543042 0.6581918868 -0.0120165569
0.2250453694 -0.1051219865 -0.1366585825 0.7527543042 0.6581918868 -0.0120165569
0.2246204610 -0.1046242181 -0.1360114835 0.7527543042 0.6581918868 -0.0120165569
0.2241955525 -0.1041264496 -0.1353643845 0.6257871319 0.7744977454 -0.0924321798
0.2265113083 -0.1067568713 -0.1387839327 0.7206313638 0.6932681880 0.0083460757
0.2263572778 -0.1065970343 -0.1385761447 0.7225032291 0.6913572744 0.0037687001
0.2262032473 -0.1064371974 -0.1383683566 0.7225032291 0.6913572744 0.0037687001
0.2260492167 -0.1062773604 -0.1381605685 0.7225032291 0.6913572744 0.0037687001
0.2258951862 -0.1061175234 -0.1379527805 0.7527543042 0.6581918868 -0.0120165569
0.2298300812 -0.1101534781 -0.1431995216 0.6412541970 0.7503046902 -0.1607355801
0.2290003880 -0.1093043264 -0.1420956244 0.7206313638 0.6932681880 0.0083460757
0.2281706948 -0.1084551747 -0.1409917271 0.7206313638 0.6932681880 0.0083460757
0.2273410015 -0.1076060230 -0.1398878299 0.7206313638 0.6932681880 0.0083460757
0.2265113083 -0.1067568713 -0.1387839327 0.7206313638 0.6932681880 0.0083460757
0.2340046714 -0.1150984898 -0.1496280367 0.6446211678 0.7119103432 -0.2786524955
0.2329610238 -0.1138622369 -0.1480209079 0.6412541970 0.7503046902 -0.1607355801
0.2319173763 -0.1126259840 -0.1464137791 0.6412541970 0.7503046902 -0.1607355801
0.2308737287 -0.1113897310 -0.1448066504 0.6412541970 0.7503046902 -0.1607355801
0.2298300812 -0.1101534781 -0.1431995216 0.6412541970 0.7503046902 -0.1607355801
0.2361646856 -0.1190805974 -0.1548047766 0.6446211678 0.7119103432 -0.2786524955
0.2356246821 -0.1180850705 -0.1535105916 0.6446211678 0.7119103432 -0.2786524955
0.2350846785 -0.1170895436 -0.1522164067 0.6446211678 0.7119103432 -0.2786524955
0.2345446749 -0.1160940167 -0.1509222217 0.6446211678 0.7119103432 -0.2786524955
0.2340046714 -0.1150984898 -0.1496280367 0.6446211678 0.7119103432 -0.2786524955
0.2415077296 -0.1306013620 -0.1697817706 0.6856265223 0.6997995534 -0.2004915385
0.2401719686 -0.1277211708 -0.1660375221 0.6894829009 0.6717816691 -0.2707816803
0.2388362076 -0.1248409797 -0.1622932736 0.6894829009 0.6717816691 -0.2707816803
0.2375004466 -0.1219607885 -0.1585490251 0.6894829009 0.6717816691 -0.2707816803
0.2361646856 -0.1190805974 -0.1548047766 0.6446211678 0.7119103432 -0.2786524955
0.2429059008 -0.1327842108 -0.1726194740 0.6382687882 0.6518707925 -0.4094843389
0.2425563580 -0.1322384986 -0.1719100482 0.6856265223 0.6997995534 -0.2004915385
0.2422068152 -0.1316927864 -0.1712006223 0.6856265223 0.6997995534 -0.2004915385
0.2418572724 -0.1311470742 -0.1704911964 0.6856265223 0.6997995534 -0.2004915385
0.2415077296 -0.1306013620 -0.1697817706 0.6856265223 0.6997995534 -0.2004915385
0.2448585971 -0.1432102114 -0.1861732748 0.6537057815 0.6475228120 -0.3916413656
0.2443704230 -0.1406037112 -0.1827848246 0.6382687882 0.6518707925 -0.4094843389
0.2438822490 -0.1379972111 -0.1793963744 0.6382687882 0.6518707925 -0.4094843389
0.2433940749 -0.1353907109 -0.1760079242 0.6382687882 0.6518707925 -0.4094843389
0.2429059008 -0.1327842108 -0.1726194740 0.6382687882 0.6518707925 -0.4094843389
0.2449171379 -0.1434867380 -0.1865327594 0.6350329488 0.6240051930 -0.4553577419
0.2449025027 -0.1434176064 -0.1864428883 0.6537057815 0.6475228120 -0.3916413656
0.2448878675 -0.1433484747 -0.1863530171 0.6537057815 0.6475228120 -0.3916413656
0.2448732323 -0.1432793430 -0.1862631460 0.6537057815 0.6475228120 -0.3916413656
0.2448585971 -0.1432102114 -0.1861732748 0.6537057815 0.6475228120 -0.3916413656
0.2449233108 -0.1436090866 -0.1866918126 0.6591270018 0.5430860191 -0.5202010875
0.2449217676 -0.1435784995 -0.1866520493 0.6350329488 0.6240051930 -0.4553577419
0.2449202244 -0.1435479123 -0.1866122860 0.6350329488 0.6240051930 -0.4553577419
0.2449186811 -0.1435173252 -0.1865725227 0.6350329488 0.6240051930 -0.4553577419
0.2449171379 -0.1434867380 -0.1865327594 0.6350329488 0.6240051930 -0.4553577419
0.2448417224 -0.1440128924 -0.1872167602 0.6090564886 0.5951765691 -0.5242280470
0.2448621195 -0.1439119410 -0.1870855233 0.6591270018 0.5430860191 -0.5202010875
0.2448825166 -0.1438109895 -0.1869542864 0.6591270018 0.5430860191 -0.5202010875
0.2449029137 -0.1437100381 -0.1868230495 0.6591270018 0.5430860191 -0.5202010875
0.2449233108 -0.1436090866 -0.1866918126 0.6591270018 0.5430860191 -0.5202010875
0.2436480322 -0.1524353160 -0.1981659108 0.7341867130 0.3883320979 -0.5569273311
0.2439464548 -0.1503297101 -0.1954286232 0.6090564886 0.5951765691 -0.5242280470
0.2442448773 -0.1482241042 -0.1926913355 0.6090564886 0.5951765691 -0.5242280470
0.2445432999 -0.1461184983 -0.1899540478 0.6090564886 0.5951765691 -0.5242280470
0.2448417224 -0.1440128924 -0.1872167602 0.6090564886 0.5951765691 -0.5242280470
0.2372680034 -0.1663897279 -0.2163066463 0.7341867130 0.3883320979 -0.5569273311
0.2388630106 -0.1629011249 -0.2117714624 0.7341867130 0.3883320979 -0.5569273311
0.2404580178 -0.1594125220 -0.2072362786 0.7341867130 0.3883320979 -0.5569273311
0.2420530250 -0.1559239190 -0.2027010947 0.7341867130 0.3883320979 -0.5569273311
0.2436480322 -0.1524353160 -0.1981659108 0.7341867130 0.3883320979 -0.5569273311
0.2326281326 -0.1711616396 -0.2225101315 0.5393768807 0.3887721501 -0.7469463140
0.2337881003 -0.1699686617 -0.2209592602 0.5482171904 0.4126397565 -0.7274519527
0.2349480680 -0.1687756838 -0.2194083889 0.5482171904 0.4126397565 -0.7274519527
0.2361080357 -0.1675827058 -0.2178575176 0.5482171904 0.4126397565 -0.7274519527
0.2372680034 -0.1663897279 -0.2163066463 0.7341867130 0.3883320979 -0.5569273311
0.2231225715 -0.1799671550 -0.2339573015 0.3633500716 0.3429145111 -0.8662484422
0.2254989618 -0.1777657762 -0.2310955090 0.5393768807 0.3887721501 -0.7469463140
0.2278753521 -0.1755643973 -0.2282337165 0.5393768807 0.3887721501 -0.7469463140
0.2302517423 -0.1733630185 -0.2253719240 0.5393768807 0.3887721501 -0.7469463140
0.2326281326 -0.1711616396 -0.2225101315 0.5393768807 0.3887721501 -0.7469463140
0.2152550189 -0.1836171166 -0.2387022516 0.3633500716 0.3429145111 -0.8662484422
0.2172219071 -0.1827046262 -0.2375160141 0.3633500716 0.3429145111 -0.8662484422
0.2191887952 -0.1817921358 -0.2363297765 0.3633500716 0.3429145111 -0.8662484422
0.2211556834 -0.1808796454 -0.2351435390 0.3633500716 0.3429145111 -0.8662484422
0.2231225715 -0.1799671550 -0.2339573015 0.3633500716 0.3429145111 -0.8662484422
0.2127881117 -0.1844041654 -0.2397254151 0.2494809363 0.2360020339 -0.9391817196
0.2134048385 -0.1842074032 -0.2394696242 0.3206678147 0.1988219596 -0.9260896182
0.2140215653 -0.1840106410 -0.2392138333 0.3206678147 0.1988219596 -0.9260896182
0.2146382921 -0.1838138788 -0.2389580424 0.3206678147 0.1988219596 -0.9260896182
0.2152550189 -0.1836171166 -0.2387022516 0.3633500716 0.3429145111 -0.8662484422
0.2089881499 -0.1853666827 -0.2409766875 0.3124978989 0.1235467601 -0.9418499144
0.2099381403 -0.1851260534 -0.2406638694 0.2494809363 0.2360020339 -0.9391817196
0.2108881308 -0.1848854241 -0.2403510513 0.2494809363 0.2360020339 -0.9391817196
0.2118381212 -0.1846447948 -0.2400382332 0.2494809363 0.2360020339 -0.9391817196
0.2127881117 -0.1844041654 -0.2397254151 0.2494809363 0.2360020339 -0.9391817196
0.1839010569 -0.1924880846 -0.2502345100 0.3124978989 0.1235467601 -0.9418499144
0.1901728302 -0.1907077342 -0.2479200544 0.3124978989 0.1235467601 -0.9418499144
0.1964446034 -0.1889273837 -0.2456055988 0.3124978989 0.1235467601 -0.9418499144
0.2027163766 -0.1871470332 -0.2432911432 0.3124978989 0.1235467601 -0.9418499144
0.2089881499 -0.1853666827 -0.2409766875 0.3124978989 0.1235467601 -0.9418499144
0.1790572626 -0.1938855631 -0.2520512321 0.3174294406 0.1222388929 -0.9403702480
0.1802682112 -0.1935361935 -0.2515970516 0.3174294406 0.1222388929 -0.9403702480
0.1814791598 -0.1931868239 -0.2511428711 0.3174294406 0.1222388929 -0.9403702480
0.1826901084 -0.1928374543 -0.2506886906 0.3174294406 0.1222388929 -0.9403702480
0.1839010569 -0.1924880846 -0.2502345100 0.3124978989 0.1235467601 -0.9418499144
0.1561093081 -0.1988839806 -0.2585491748 0.2819227803 0.0770856342 -0.9563353758
0.1618462967 -0.1976343763 -0.2569246891 0.2538187575 0.0870325093 -0.9633282829
0.1675832853 -0.1963847719 -0.2553002035 0.2538187575 0.0870325093 -0.9633282829
0.1733202739 -0.1951351675 -0.2536757178 0.2538187575 0.0870325093 -0.9633282829
0.1790572626 -0.1938855631 -0.2520512321 0.3174294406 0.1222388929 -0.9403702480
0.1501219409 -0.2003314585 -0.2604308960 0.2240453332 0.0013455302 -0.9745777949
0.1516187827 -0.1999695890 -0.2599604657 0.2819227803 0.0770856342 -0.9563353758
0.1531156245 -0.1996077196 -0.2594900354 0.2819227803 0.0770856342 -0.9563353758
0.1546124663 -0.1992458501 -0.2590196051 0.2819227803 0.0770856342 -0.9563353758
0.1561093081 -0.1988839806 -0.2585491748 0.2819227803 0.0770856342 -0.9563353758
0.1383940686 -0.2024076000 -0.2631298801 0.1903843032 -0.0062056285 -0.9816900261
0.1413260367 -0.2018885647 -0.2624551340 0.2240453332 0.0013455302 -0.9745777949
0.1442580047 -0.2013695293 -0.2617803880 0.2240453332 0.0013455302 -0.9745777949
0.1471899728 -0.2008504939 -0.2611056420 0.2240453332 0.0013455302 -0.9745777949
0.1501219409 -0.2003314585 -0.2604308960 0.2240453332 0.0013455302 -0.9745777949
0.1256019498 -0.2043066959 -0.2655987046 0.4307235033 -0.1625865406 -0.8877177933
0.1287999795 -0.2038319219 -0.2649814985 0.1903843032 -0.0062056285 -0.9816900261
0.1319980092 -0.2033571479 -0.2643642923 0.1903843032 -0.0062056285 -0.9816900261
0.1351960389 -0.2028823740 -0.2637470862 0.1903843032 -0.0062056285 -0.9816900261
0.1383940686 -0.2024076000 -0.2631298801 0.1903843032 -0.0062056285 -0.9816900261
0.1212855684 -0.2057187679 -0.2674343983 0.2284183797 -0.3015824415 -0.9256743892
0.1223646638 -0.2053657499 -0.2669754749 0.4307235033 -0.1625865406 -0.8877177933
0.1234437591 -0.2050127319 -0.2665165515 0.4307235033 -0.1625865406 -0.8877177933
0.1245228545 -0.2046597139 -0.2660576280 0.4307235033 -0.1625865406 -0.8877177933
0.1256019498 -0.2043066959 -0.2655987046 0.4307235033 -0.1625865406 -0.8877177933
0.1085062420 -0.2076583881 -0.2699559045 0.5029453941 -0.4873967288 -0.7137859338
0.1117010736 -0.2071734830 -0.2693255279 0.2284183797 -0.3015824415 -0.9256743892
0.1148959052 -0.2066885780 -0.2686951514 0.2284183797 -0.3015824415 -0.9256743892
0.1180907368 -0.2062036730 -0.2680647749 0.2284183797 -0.3015824415 -0.9256743892
0.1212855684 -0.2057187679 -0.2674343983 0.2284183797 -0.3015824415 -0.9256743892
0.1005524216 -0.2104848526 -0.2736303083 0.4130366020 -0.5372733789 -0.7353489524
0.1025408767 -0.2097782364 -0.2727117074 0.5029453941 -0.4873967288 -0.7137859338
0.1045293318 -0.2090716203 -0.2717931064 0.5029453941 -0.4873967288 -0.7137859338
0.1065177869 -0.2083650042 -0.2708745054 0.5029453941 -0.4873967288 -0.7137859338
0.1085062420 -0.2076583881 -0.2699559045 0.5029453941 -0.4873967288 -0.7137859338
0.0916471830 -0.2129480972 -0.2768325264 0.1517533332 -0.4148797798 -0.8971319269
0.0938734927 -0.2123322861 -0.2760319719 0.4130366020 -0.5372733789 -0.7353489524
0.0960998023 -0.2117164749 -0.2752314174 0.4130366020 -0.5372733789 -0.7353489524
0.0983261120 -0.2111006637 -0.2744308628 0.4130366020 -0.5372733789 -0.7353489524
0.1005524216 -0.2104848526 -0.2736303083 0.4130366020 -0.5372733789 -0.7353489524
0.0715923117 -0.2148728863 -0.2793347521 0.1517533332 -0.4148797798 -0.8971319269
0.0766060295 -0.2143916890 -0.2787091957 0.1517533332 -0.4148797798 -0.8971319269
0.0816197474 -0.2139104917 -0.2780836393 0.1517533332 -0.4148797798 -0.8971319269
0.0866334652 -0.2134292945 -0.2774580828 0.1517533332 -0.4148797798 -0.8971319269
0.0916471830 -0.2129480972 -0.2768325264 0.1517533332 -0.4148797798 -0.8971319269
0.0629775465 -0.2151462539 -0.2796901301 0.0022650593 -0.3988135265 -0.9170292474
0.0651312378 -0.2150779120 -0.2796012856 0.0508111715 -0.4284418368 -0.9021395775
0.0672849291 -0.2150095701 -0.2795124411 0.0508111715 -0.4284418368 -0.9021395775
0.0694386204 -0.2149412282 -0.2794235966 0.0508111715 -0.4284418368 -0.9021395775
0.0715923117 -0.2148728863 -0.2793347521 0.1517533332 -0.4148797798 -0.8971319269
0.0626525664 -0.2151467165 -0.2796907315 -0.0038658680 -0.4009968587 -0.9160712714
0.0627338115 -0.2151466009 -0.2796905811 0.0022650593 -0.3988135265 -0.9170292474
0.0628150565 -0.2151464852 -0.2796904308 0.0022650593 -0.3988135265 -0.9170292474
0.0628963015 -0.2151463696 -0.2796902804 0.0022650593 -0.3988135265 -0.9170292474
0.0629775465 -0.2151462539 -0.2796901301 0.0022650593 -0.3988135265 -0.9170292474
0.0615964469 -0.2151441523 -0.2796873980 -0.0702304655 -0.6215559723 -0.7802152619
0.0618604768 -0.2151447934 -0.2796882314 -0.0038658680 -0.4009968587 -0.9160712714
0.0621245067 -0.2151454344 -0.2796890647 -0.0038658680 -0.4009968587 -0.9160712714
0.0623885366 -0.2151460755 -0.2796898981 -0.0038658680 -0.4009968587 -0.9160712714
0.0626525664 -0.2151467165 -0.2796907315 -0.0038658680 -0.4009968587 -0.9160712714
0.0491037292 -0.2146078146 -0.2789901589 -0.0702304655 -0.6215559723 -0.7802152619
0.0522269086 -0.2147418990 -0.2791644687 -0.0702304655 -0.6215559723 -0.7802152619
0.0553500881 -0.2148759834 -0.2793387785 -0.0702304655 -0.6215559723 -0.7802152619
0.0584732675 -0.2150100679 -0.2795130882 -0.0702304655 -0.6215559723 -0.7802152619
0.0615964469 -0.2151441523 -0.2796873980 -0.0702304655 -0.6215559723 -0.7802152619
0.0430268921 -0.2179482919 -0.2833327795 0.6665165159 -0.3745587259 -0.6445630263
0.0445461014 -0.2171131726 -0.2822471244 0.6665165159 -0.3745587259 -0.6445630263
0.0460653107 -0.2162780533 -0.2811614692 0.6665165159 -0.3745587259 -0.6445630263
0.0475845199 -0.2154429339 -0.2800758141 0.6665165159 -0.3745587259 -0.6445630263
0.0491037292 -0.2146078146 -0.2789901589 -0.0702304655 -0.6215559723 -0.7802152619
0.0429193922 -0.2180003759 -0.2834004887 0.8629464620 -0.1802997402 -0.4720332693
0.0429462672 -0.2179873549 -0.2833835614 0.6210481311 -0.4296742088 -0.6554992702
0.0429731422 -0.2179743339 -0.2833666341 0.6210481311 -0.4296742088 -0.6554992702
0.0430000172 -0.2179613129 -0.2833497068 0.6210481311 -0.4296742088 -0.6554992702
0.0430268921 -0.2179482919 -0.2833327795 0.6665165159 -0.3745587259 -0.6445630263
0.0420250465 -0.2189724523 -0.2846641880 0.7187273562 0.0871991817 -0.6898023559
0.0422486329 -0.2187294332 -0.2843482631 0.8629464620 -0.1802997402 -0.4720332693
0.0424722193 -0.2184864141 -0.2840323383 0.8629464620 -0.1802997402 -0.4720332693
0.0426958057 -0.2182433950 -0.2837164135 0.8629464620 -0.1802997402 -0.4720332693
0.0429193922 -0.2180003759 -0.2834004887 0.8629464620 -0.1802997402 -0.4720332693
0.0305783528 -0.2291350455 -0.2978755591 0.7312340341 0.1302324089 -0.6695792015
0.0334400262 -0.2265943972 -0.2945727163 0.7187273562 0.0871991817 -0.6898023559
0.0363016996 -0.2240537489 -0.2912698735 0.7187273562 0.0871991817 -0.6898023559
0.0391633731 -0.2215131006 -0.2879670307 0.7187273562 0.0871991817 -0.6898023559
0.0420250465 -0.2189724523 -0.2846641880 0.7187273562 0.0871991817 -0.6898023559
0.0266351798 -0.2330303523 -0.3029394580 0.7422455809 0.1308580076 -0.6572272662
0.0276209730 -0.2320565256 -0.3016734833 0.7312340341 0.1302324089 -0.6695792015
0.0286067663 -0.2310826989 -0.3004075086 0.7312340341 0.1302324089 -0.6695792015
0.0295925595 -0.2301088722 -0.2991415338 0.7312340341 0.1302324089 -0.6695792015
0.0305783528 -0.2291350455 -0.2978755591 0.7312340341 0.1302324089 -0.6695792015
0.0177596940 -0.2421353302 -0.3147759293 0.7545980168 0.3272766925 -0.5687458128
0.0199785654 -0.2398590858 -0.3118168115 0.7422455809 0.1308580076 -0.6572272662
0.0221974369 -0.2375828413 -0.3088576937 0.7422455809 0.1308580076 -0.6572272662
0.0244163083 -0.2353065968 -0.3058985759 0.7422455809 0.1308580076 -0.6572272662
0.0266351798 -0.2330303523 -0.3029394580 0.7422455809 0.1308580076 -0.6572272662
0.0169905605 -0.2435437178 -0.3166068331 0.6743911831 0.3156364988 -0.6675103989
0.0171828439 -0.2431916209 -0.3161491071 0.7545980168 0.3272766925 -0.5687458128
0.0173751272 -0.2428395240 -0.3156913812 0.7545980168 0.3272766925 -0.5687458128
0.0175674106 -0.2424874271 -0.3152336552 0.7545980168 0.3272766925 -0.5687458128
0.0177596940 -0.2421353302 -0.3147759293 0.7545980168 0.3272766925 -0.5687458128
0.0087729461 -0.2535810394 -0.3296553512 0.7010293640 0.5561554720 -0.4463730746
0.0108273497 -0.2510717090 -0.3263932217 0.6743911831 0.3156364988 -0.6675103989
0.0128817533 -0.2485623786 -0.3231310921 0.6743911831 0.3156364988 -0.6675103989
0.0149361569 -0.2460530482 -0.3198689626 0.6743911831 0.3156364988 -0.6675103989
0.0169905605 -0.2435437178 -0.3166068331 0.6743911831 0.3156364988 -0.6675103989
0.0086488252 -0.2571871206 -0.3343432568 0.6342190369 0.5687974149 -0.5236751990
0.0086798555 -0.2562856003 -0.3331712804 0.7010293640 0.5561554720 -0.4463730746
0.0087108857 -0.2553840800 -0.3319993040 0.7010293640 0.5561554720 -0.4463730746
0.0087419159 -0.2544825597 -0.3308273276 0.7010293640 0.5561554720 -0.4463730746
0.0087729461 -0.2535810394 -0.3296553512 0.7010293640 0.5561554720 -0.4463730746
0.0075227358 -0.2635649227 -0.3426343995 0.6342190369 0.5687974149 -0.5236751990
0.0078042581 -0.2619704722 -0.3405616138 0.6342190369 0.5687974149 -0.5236751990
0.0080857805 -0.2603760217 -0.3384888281 0.6342190369 0.5687974149 -0.5236751990
0.0083673029 -0.2587815711 -0.3364160425 0.6342190369 0.5687974149 -0.5236751990
0.0086488252 -0.2571871206 -0.3343432568 0.6342190369 0.5687974149 -0.5236751990
0.0015914157 -0.2738610187 -0.3560193243 0.2697761120 0.6580051771 -0.7030291859
0.0030742457 -0.2712869947 -0.3526730931 0.3353128928 0.6690697464 -0.6632578220
0.0045570758 -0.2687129707 -0.3493268619 0.3353128928 0.6690697464 -0.6632578220
0.0060399058 -0.2661389467 -0.3459806307 0.3353128928 0.6690697464 -0.6632578220
0.0075227358 -0.2635649227 -0.3426343995 0.6342190369 0.5687974149 -0.5236751990
-0.0049365419 -0.2807420654 -0.3649646850 0.0219362985 0.6580853315 -0.7526237409
-0.0033045525 -0.2790218037 -0.3627283448 0.2697761120 0.6580051771 -0.7030291859
-0.0016725631 -0.2773015420 -0.3604920046 0.2697761120 0.6580051771 -0.7030291859
-0.0000405737 -0.2755812803 -0.3582556644 0.2697761120 0.6580051771 -0.7030291859
0.0015914157 -0.2738610187 -0.3560193243 0.2697761120 0.6580051771 -0.7030291859
-0.0088491660 -0.2810100079 -0.3653130102 0.0219362985 0.6580853315 -0.7526237409
-0.0078710100 -0.2809430222 -0.3652259289 0.0219362985 0.6580853315 -0.7526237409
-0.0068928539 -0.2808760366 -0.3651388476 0.0219362985 0.6580853315 -0.7526237409
-0.0059146979 -0.2808090510 -0.3650517663 0.0219362985 0.6580853315 -0.7526237409
-0.0049365419 -0.2807420654 -0.3649646850 0.0219362985 0.6580853315 -0.7526237409
-0.0195860183 -0.2837160512 -0.3688308665 -0.1152697382 0.6830659884 -0.7212029832
-0.0169018052 -0.2830395403 -0.3679514024 0.0590882283 0.6959311828 -0.7156733683
-0.0142175922 -0.2823630295 -0.3670719384 0.0590882283 0.6959311828 -0.7156733683
-0.0115333791 -0.2816865187 -0.3661924743 0.0590882283 0.6959311828 -0.7156733683
-0.0088491660 -0.2810100079 -0.3653130102 0.0219362985 0.6580853315 -0.7526237409
-0.0236625414 -0.2818697002 -0.3664306103 -0.1152697382 0.6830659884 -0.7212029832
-0.0226434106 -0.2823312880 -0.3670306743 -0.1152697382 0.6830659884 -0.7212029832
-0.0216242799 -0.2827928757 -0.3676307384 -0.1152697382 0.6830659884 -0.7212029832
-0.0206051491 -0.2832544634 -0.3682308025 -0.1152697382 0.6830659884 -0.7212029832
-0.0195860183 -0.2837160512 -0.3688308665 -0.1152697382 0.6830659884 -0.7212029832
-0.0259634058 -0.2752086359 -0.3577712266 -0.3565994822 0.6406859576 -0.6799693472
-0.0253881897 -0.2768739019 -0.3599360725 -0.3407247421 0.6992696652 -0.6284334376
-0.0248129736 -0.2785391680 -0.3621009185 -0.3407247421 0.6992696652 -0.6284334376
-0.0242377575 -0.2802044341 -0.3642657644 -0.3407247421 0.6992696652 -0.6284334376
-0.0236625414 -0.2818697002 -0.3664306103 -0.1152697382 0.6830659884 -0.7212029832
-0.0313459796 -0.2673187010 -0.3475143113 -0.3565994822 0.6406859576 -0.6799693472
-0.0300003361 -0.2692911847 -0.3500785402 -0.3565994822 0.6406859576 -0.6799693472
-0.0286546927 -0.2712636684 -0.3526427690 -0.3565994822 0.6406859576 -0.6799693472
-0.0273090492 -0.2732361521 -0.3552069978 -0.3565994822 0.6406859576 -0.6799693472
-0.0259634058 -0.2752086359 -0.3577712266 -0.3565994822 0.6406859576 -0.6799693472
-0.0380702232 -0.2582314349 -0.3357008653 -0.3905696757 0.6087387863 -0.6905739776
-0.0363891623 -0.2605032514 -0.3386542268 -0.3905696757 0.6087387863 -0.6905739776
-0.0347081014 -0.2627750679 -0.3416075883 -0.3905696757 0.6087387863 -0.6905739776
-0.0330270405 -0.2650468845 -0.3445609498 -0.3905696757 0.6087387863 -0.6905739776
-0.0313459796 -0.2673187010 -0.3475143113 -0.3565994822 0.6406859576 -0.6799693472
-0.0415448551 -0.2550801759 -0.3316042286 -0.3971082041 0.5332192496 -0.7469821324
-0.0406761971 -0.2558679906 -0.3326283878 -0.3971082041 0.5332192496 -0.7469821324
-0.0398075391 -0.2566558054 -0.3336525470 -0.3971082041 0.5332192496 -0.7469821324
-0.0389388811 -0.2574436201 -0.3346767061 -0.3971082041 0.5332192496 -0.7469821324
-0.0380702232 -0.2582314349 -0.3357008653 -0.3905696757 0.6087387863 -0.6905739776
-0.0483931706 -0.2429977756 -0.3158971083 -0.5362661673 0.5396926526 -0.6489610455
-0.0466810917 -0.2460183757 -0.3198238884 -0.5362661673 0.5396926526 -0.6489610455
-0.0449690128 -0.2490389757 -0.3237506684 -0.5362661673 0.5396926526 -0.6489610455
-0.0432569340 -0.2520595758 -0.3276774485 -0.5362661673 0.5396926526 -0.6489610455
-0.0415448551 -0.2550801759 -0.3316042286 -0.3971082041 0.5332192496 -0.7469821324
-0.0486804448 -0.2427188227 -0.3155344695 -0.5549307708 0.3863067957 -0.7367624443
-0.0486086263 -0.2427885609 -0.3156251292 -0.5549307708 0.3863067957 -0.7367624443
-0.0485368077 -0.2428582992 -0.3157157889 -0.5549307708 0.3863067957 -0.7367624443
-0.0484649891 -0.2429280374 -0.3158064486 -0.5549307708 0.3863067957 -0.7367624443
-0.0483931706 -0.2429977756 -0.3158971083 -0.5362661673 0.5396926526 -0.6489610455
-0.0551010452 -0.2331192017 -0.3030549622 -0.8215523162 0.1613768021 -0.5468174463
-0.0534958951 -0.2355191070 -0.3061748391 -0.8215523162 0.1613768021 -0.5468174463
-0.0518907450 -0.2379190122 -0.3092947159 -0.8215523162 0.1613768021 -0.5468174463
-0.0502855949 -0.2403189175 -0.3124145927 -0.8215523162 0.1613768021 -0.5468174463
-0.0486804448 -0.2427188227 -0.3155344695 -0.5549307708 0.3863067957 -0.7367624443
-0.0580600691 -0.2277831019 -0.2961180325 -0.8163012554 -0.1414866524 -0.5600301667
-0.0573203131 -0.2291171268 -0.2978522649 -0.8551987432 0.1646536735 -0.4914511953
-0.0565805571 -0.2304511518 -0.2995864973 -0.8551987432 0.1646536735 -0.4914511953
-0.0558408011 -0.2317851768 -0.3013207298 -0.8551987432 0.1646536735 -0.4914511953
-0.0551010452 -0.2331192017 -0.3030549622 -0.8215523162 0.1613768021 -0.5468174463
-0.0714172878 -0.2152434882 -0.2798165346 -0.7660292945 -0.1554860586 -0.6237172481
-0.0680779831 -0.2183783916 -0.2838919091 -0.8163012554 -0.1414866524 -0.5600301667
-0.0647386784 -0.2215132950 -0.2879672835 -0.8163012554 -0.1414866524 -0.5600301667
-0.0613993738 -0.2246481985 -0.2920426580 -0.8163012554 -0.1414866524 -0.5600301667
-0.0580600691 -0.2277831019 -0.2961180325 -0.8163012554 -0.1414866524 -0.5600301667
-0.0716252589 -0.2150786232 -0.2796022102 -0.6266490731 -0.3216033475 -0.7098466215
-0.0715732661 -0.2151198395 -0.2796557913 -0.7660292945 -0.1554860586 -0.6237172481
-0.0715212734 -0.2151610557 -0.2797093724 -0.7660292945 -0.1554860586 -0.6237172481
-0.0714692806 -0.2152022719 -0.2797629535 -0.7660292945 -0.1554860586 -0.6237172481
-0.0714172878 -0.2152434882 -0.2798165346 -0.7660292945 -0.1554860586 -0.6237172481
-0.0801060791 -0.2108079078 -0.2740502801 -0.6266490731 -0.3216033475 -0.7098466215
-0.0779858741 -0.2118755867 -0.2754382627 -0.6266490731 -0.3216033475 -0.7098466215
-0.0758656690 -0.2129432655 -0.2768262452 -0.6266490731 -0.3216033475 -0.7098466215
-0.0737454639 -0.2140109444 -0.2782142277 -0.6266490731 -0.3216033475 -0.7098466215
-0.0716252589 -0.2150786232 -0.2796022102 -0.6266490731 -0.3216033475 -0.7098466215
-0.0918258744 -0.2108917487 -0.2741592733 -0.2585437289 -0.1604589591 -0.9525796884
-0.0888959256 -0.2108707885 -0.2741320250 0.0114560693 -0.4245506572 -0.9053317060
-0.0859659768 -0.2108498282 -0.2741047767 0.0114560693 -0.4245506572 -0.9053317060
-0.0830360279 -0.2108288680 -0.2740775284 0.0114560693 -0.4245506572 -0.9053317060
-0.0801060791 -0.2108079078 -0.2740502801 -0.6266490731 -0.3216033475 -0.7098466215
-0.1012665173 -0.2091468202 -0.2718908662 -0.2585437289 -0.1604589591 -0.9525796884
-0.0989063566 -0.2095830523 -0.2724579680 -0.2585437289 -0.1604589591 -0.9525796884
-0.0965461959 -0.2100192844 -0.2730250698 -0.2585437289 -0.1604589591 -0.9525796884
-0.0941860352 -0.2104555166 -0.2735921715 -0.2585437289 -0.1604589591 -0.9525796884
-0.0918258744 -0.2108917487 -0.2741592733 -0.2585437289 -0.1604589591 -0.9525796884
-0.1069733895 -0.2083532032 -0.2708591642 -0.1962891948 -0.1522623019 -0.9686520239
-0.1055466715 -0.2085516075 -0.2711170897 -0.1962891948 -0.1522623019 -0.9686520239
-0.1041199534 -0.2087500117 -0.2713750152 -0.1962891948 -0.1522623019 -0.9686520239
-0.1026932354 -0.2089484159 -0.2716329407 -0.1962891948 -0.1522623019 -0.9686520239
-0.1012665173 -0.2091468202 -0.2718908662 -0.2585437289 -0.1604589591 -0.9525796884
-0.1151329486 -0.2065618795 -0.2685304434 -0.0694244222 0.0419235509 -0.9967059072
-0.1130930589 -0.2070097104 -0.2691126236 -0.2372411503 0.1640959787 -0.9574910686
-0.1110531691 -0.2074575414 -0.2696948038 -0.2372411503 0.1640959787 -0.9574910686
-0.1090132793 -0.2079053723 -0.2702769840 -0.2372411503 0.1640959787 -0.9574910686
-0.1069733895 -0.2083532032 -0.2708591642 -0.1962891948 -0.1522623019 -0.9686520239
-0.1173581623 -0.2064386648 -0.2683702643 -0.0694244222 0.0419235509 -0.9967059072
-0.1168018589 -0.2064694685 -0.2684103090 -0.0694244222 0.0419235509 -0.9967059072
-0.1162455555 -0.2065002722 -0.2684503538 -0.0694244222 0.0419235509 -0.9967059072
-0.1156892521 -0.2065310758 -0.2684903986 -0.0694244222 0.0419235509 -0.9967059072
-0.1151329486 -0.2065618795 -0.2685304434 -0.0694244222 0.0419235509 -0.9967059072
-0.1207216258 -0.2065354762 -0.2684961191 0.0362683313 0.0381196637 -0.9986147903
-0.1198807599 -0.2065112734 -0.2684646554 0.0362683313 0.0381196637 -0.9986147903
-0.1190398941 -0.2064870705 -0.2684331917 0.0362683313 0.0381196637 -0.9986147903
-0.1181990282 -0.2064628677 -0.2684017280 0.0362683313 0.0381196637 -0.9986147903
-0.1173581623 -0.2064386648 -0.2683702643 -0.0694244222 0.0419235509 -0.9967059072
-0.1356388738 -0.2059459191 -0.2677296948 -0.1653248982 -0.0740179637 -0.9834576855
-0.1319095618 -0.2060933084 -0.2679213009 -0.0532475307 -0.0508257884 -0.9972870398
-0.1281802498 -0.2062406977 -0.2681129070 -0.0532475307 -0.0508257884 -0.9972870398
-0.1244509378 -0.2063880869 -0.2683045130 -0.0532475307 -0.0508257884 -0.9972870398
-0.1207216258 -0.2065354762 -0.2684961191 0.0362683313 0.0381196637 -0.9986147903
-0.1438526776 -0.2049419031 -0.2664244740 -0.3663173829 -0.0175538261 -0.9303243726
-0.1417992267 -0.2051929071 -0.2667507792 -0.1653248982 -0.0740179637 -0.9834576855
-0.1397457757 -0.2054439111 -0.2670770844 -0.1653248982 -0.0740179637 -0.9834576855
-0.1376923248 -0.2056949151 -0.2674033896 -0.1653248982 -0.0740179637 -0.9834576855
-0.1356388738 -0.2059459191 -0.2677296948 -0.1653248982 -0.0740179637 -0.9834576855
-0.1542441168 -0.2018395044 -0.2623913557 -0.3663173829 -0.0175538261 -0.9303243726
-0.1516462570 -0.2026151040 -0.2633996353 -0.3663173829 -0.0175538261 -0.9303243726
-0.1490483972 -0.2033907037 -0.2644079148 -0.3663173829 -0.0175538261 -0.9303243726
-0.1464505374 -0.2041663034 -0.2654161944 -0.3663173829 -0.0175538261 -0.9303243726
-0.1438526776 -0.2049419031 -0.2664244740 -0.3663173829 -0.0175538261 -0.9303243726
-0.1612573016 -0.2016523913 -0.2621481087 -0.0310813935 0.1243581925 -0.9917504661
-0.1595040054 -0.2016991696 -0.2622089205 -0.0310813935 0.1243581925 -0.9917504661
-0.1577507092 -0.2017459478 -0.2622697322 -0.0310813935 0.1243581925 -0.9917504661
-0.1559974130 -0.2017927261 -0.2623305439 -0.0310813935 0.1243581925 -0.9917504661
-0.1542441168 -0.2018395044 -0.2623913557 -0.3663173829 -0.0175538261 -0.9303243726
-0.1724484477 -0.1992832808 -0.2590682650 -0.2800535088 -0.0791833353 -0.9567131397
-0.1696506611 -0.1998755584 -0.2598382259 -0.2800535088 -0.0791833353 -0.9567131397
-0.1668528746 -0.2004678361 -0.2606081869 -0.2800535088 -0.0791833353 -0.9567131397
-0.1640550881 -0.2010601137 -0.2613781478 -0.2800535088 -0.0791833353 -0.9567131397
-0.1612573016 -0.2016523913 -0.2621481087 -0.0310813935 0.1243581925 -0.9917504661
-0.1812419606 -0.1962459757 -0.2551197685 -0.4385886957 -0.0193534447 -0.8984794935
-0.1790435824 -0.1970053020 -0.2561068926 -0.4101940635 -0.0019891830 -0.9119960929
-0.1768452041 -0.1977646283 -0.2570940167 -0.4101940635 -0.0019891830 -0.9119960929
-0.1746468259 -0.1985239545 -0.2580811409 -0.4101940635 -0.0019891830 -0.9119960929
-0.1724484477 -0.1992832808 -0.2590682650 -0.2800535088 -0.0791833353 -0.9567131397
-0.1889570444 -0.1933962105 -0.2514150736 -0.4385886957 -0.0193534447 -0.8984794935
-0.1870282735 -0.1941086518 -0.2523412474 -0.4385886957 -0.0193534447 -0.8984794935
-0.1850995025 -0.1948210931 -0.2532674211 -0.4385886957 -0.0193534447 -0.8984794935
-0.1831707316 -0.1955335344 -0.2541935948 -0.4385886957 -0.0193534447 -0.8984794935
-0.1812419606 -0.1962459757 -0.2551197685 -0.4385886957 -0.0193534447 -0.8984794935
-0.2004911842 -0.1870726362 -0.2431944270 -0.5913191398 0.1156393640 -0.7981035098
-0.1976076492 -0.1886535297 -0.2452495887 -0.5771580120 0.0088301338 -0.8165847524
-0.1947241143 -0.1902344233 -0.2473047503 -0.5771580120 0.0088301338 -0.8165847524
-0.1918405794 -0.1918153169 -0.2493599120 -0.5771580120 0.0088301338 -0.8165847524
-0.1889570444 -0.1933962105 -0.2514150736 -0.4385886957 -0.0193534447 -0.8984794935
-0.2022947401 -0.1859158068 -0.2416905489 -0.5970599134 0.1195267992 -0.7932419581
-0.2018438511 -0.1862050141 -0.2420665184 -0.5913191398 0.1156393640 -0.7981035098
-0.2013929621 -0.1864942215 -0.2424424879 -0.5913191398 0.1156393640 -0.7981035098
-0.2009420732 -0.1867834288 -0.2428184575 -0.5913191398 0.1156393640 -0.7981035098
-0.2004911842 -0.1870726362 -0.2431944270 -0.5913191398 0.1156393640 -0.7981035098
-0.2067199716 -0.1830177419 -0.2379230645 -0.5345253839 0.1877185221 -0.8240414859
-0.2056136637 -0.1837422582 -0.2388649356 -0.5970599134 0.1195267992 -0.7932419581
-0.2045073559 -0.1844667744 -0.2398068067 -0.5970599134 0.1195267992 -0.7932419581
-0.2034010480 -0.1851912906 -0.2407486778 -0.5970599134 0.1195267992 -0.7932419581
-0.2022947401 -0.1859158068 -0.2416905489 -0.5970599134 0.1195267992 -0.7932419581
-0.2235589909 -0.1728303894 -0.2246795063 -0.5345253839 0.1877185221 -0.8240414859
-0.2193492361 -0.1753772276 -0.2279903958 -0.5345253839 0.1877185221 -0.8240414859
-0.2151394813 -0.1779240657 -0.2313012854 -0.5345253839 0.1877185221 -0.8240414859
-0.2109297264 -0.1804709038 -0.2346121750 -0.5345253839 0.1877185221 -0.8240414859
-0.2067199716 -0.1830177419 -0.2379230645 -0.5345253839 0.1877185221 -0.8240414859
-0.2276049169 -0.1694849953 -0.2203304939 -0.6154687288 0.2340444170 -0.7526097626
-0.2265934354 -0.1703213438 -0.2214177470 -0.6154687288 0.2340444170 -0.7526097626
-0.2255819539 -0.1711576924 -0.2225050001 -0.6154687288 0.2340444170 -0.7526097626
-0.2245704724 -0.1719940409 -0.2235922532 -0.6154687288 0.2340444170 -0.7526097626
-0.2235589909 -0.1728303894 -0.2246795063 -0.5345253839 0.1877185221 -0.8240414859
-0.2306611449 -0.1655609754 -0.2152292680 -0.8100086533 0.2797138745 -0.5154087018
-0.2298970879 -0.1665419803 -0.2165045745 -0.7486013249 0.2268541284 -0.6230034196
-0.2291330309 -0.1675229853 -0.2177798809 -0.7486013249 0.2268541284 -0.6230034196
-0.2283689739 -0.1685039903 -0.2190551874 -0.7486013249 0.2268541284 -0.6230034196
-0.2276049169 -0.1694849953 -0.2203304939 -0.6154687288 0.2340444170 -0.7526097626
-0.2327547840 -0.1612161422 -0.2095809848 -0.8100086533 0.2797138745 -0.5154087018
-0.2322313742 -0.1623023505 -0.2109930556 -0.8100086533 0.2797138745 -0.5154087018
-0.2317079644 -0.1633885588 -0.2124051264 -0.8100086533 0.2797138745 -0.5154087018
-0.2311845546 -0.1644747671 -0.2138171972 -0.8100086533 0.2797138745 -0.5154087018
-0.2306611449 -0.1655609754 -0.2152292680 -0.8100086533 0.2797138745 -0.5154087018
-0.2337910777 -0.1591748124 -0.2069272561 -0.8027898090 0.2781156112 -0.5274279376
-0.2335320042 -0.1596851448 -0.2075906883 -0.8027898090 0.2781156112 -0.5274279376
-0.2332729308 -0.1601954773 -0.2082541205 -0.8027898090 0.2781156112 -0.5274279376
-0.2330138574 -0.1607058097 -0.2089175526 -0.8027898090 0.2781156112 -0.5274279376
-0.2327547840 -0.1612161422 -0.2095809848 -0.8100086533 0.2797138745 -0.5154087018
-0.2341582601 -0.1566306817 -0.2036198862 -0.8504765232 0.3670589291 -0.3767723797
-0.2340664645 -0.1572667144 -0.2044467287 -0.8504765232 0.3670589291 -0.3767723797
-0.2339746689 -0.1579027470 -0.2052735712 -0.8504765232 0.3670589291 -0.3767723797
-0.2338828733 -0.1585387797 -0.2061004136 -0.8504765232 0.3670589291 -0.3767723797
-0.2337910777 -0.1591748124 -0.2069272561 -0.8027898090 0.2781156112 -0.5274279376
-0.2372758585 -0.1464640253 -0.1904032329 -0.8577239508 0.2893873232 -0.4249289370
-0.2364964589 -0.1490056894 -0.1937073962 -0.8577239508 0.2893873232 -0.4249289370
-0.2357170593 -0.1515473535 -0.1970115595 -0.8577239508 0.2893873232 -0.4249289370
-0.2349376597 -0.1540890176 -0.2003157229 -0.8577239508 0.2893873232 -0.4249289370
-0.2341582601 -0.1566306817 -0.2036198862 -0.8504765232 0.3670589291 -0.3767723797
-0.2373165519 -0.1457747979 -0.1895072372 -0.9068862282 0.3130835050 -0.2820214320
-0.2373063785 -0.1459471047 -0.1897312361 -0.9068862282 0.3130835050 -0.2820214320
-0.2372962052 -0.1461194116 -0.1899552350 -0.9068862282 0.3130835050 -0.2820214320
-0.2372860318 -0.1462917184 -0.1901792340 -0.9068862282 0.3130835050 -0.2820214320
-0.2372758585 -0.1464640253 -0.1904032329 -0.8577239508 0.2893873232 -0.4249289370
-0.2373285396 -0.1453380723 -0.1889394940 -0.9313561242 0.2251450177 -0.2861564098
-0.2373255427 -0.1454472537 -0.1890814298 -0.9043027757 0.3289243414 -0.2721126008
-0.2373225458 -0.1455564351 -0.1892233656 -0.9043027757 0.3289243414 -0.2721126008
-0.2373195488 -0.1456656165 -0.1893653014 -0.9043027757 0.3289243414 -0.2721126008
-0.2373165519 -0.1457747979 -0.1895072372 -0.9068862282 0.3130835050 -0.2820214320
-0.2406354043 -0.1243663371 -0.1616762382 -0.9217822966 0.1675635931 -0.3496281452
-0.2398086882 -0.1296092709 -0.1684920521 -0.9313561242 0.2251450177 -0.2861564098
-0.2389819720 -0.1348522047 -0.1753078661 -0.9313561242 0.2251450177 -0.2861564098
-0.2381552558 -0.1400951385 -0.1821236800 -0.9313561242 0.2251450177 -0.2861564098
-0.2373285396 -0.1453380723 -0.1889394940 -0.9313561242 0.2251450177 -0.2861564098
-0.2407551587 -0.1239816499 -0.1611761448 -0.9162923913 0.2645480468 -0.3007034827
-0.2407252201 -0.1240778217 -0.1613011682 -0.9217822966 0.1675635931 -0.3496281452
-0.2406952815 -0.1241739935 -0.1614261915 -0.9217822966 0.1675635931 -0.3496281452
-0.2406653429 -0.1242701653 -0.1615512148 -0.9217822966 0.1675635931 -0.3496281452
-0.2406354043 -0.1243663371 -0.1616762382 -0.9217822966 0.1675635931 -0.3496281452
-0.2426163272 -0.1104862494 -0.1436321243 -0.9162923913 0.2645480468 -0.3007034827
-0.2421510351 -0.1138600995 -0.1480181294 -0.9162923913 0.2645480468 -0.3007034827
-0.2416857430 -0.1172339497 -0.1524041345 -0.9162923913 0.2645480468 -0.3007034827
-0.2412204509 -0.1206077998 -0.1567901397 -0.9162923913 0.2645480468 -0.3007034827
-0.2407551587 -0.1239816499 -0.1611761448 -0.9162923913 0.2645480468 -0.3007034827
-0.2426529785 -0.1097668817 -0.1426969462 -0.9217821010 0.2890089506 -0.2584406795
-0.2426438157 -0.1099467236 -0.1429307407 -0.9217821010 0.2890089506 -0.2584406795
-0.2426346529 -0.1101265656 -0.1431645352 -0.9217821010 0.2890089506 -0.2584406795
-0.2426254901 -0.1103064075 -0.1433983297 -0.9217821010 0.2890089506 -0.2584406795
-0.2426163272 -0.1104862494 -0.1436321243 -0.9162923913 0.2645480468 -0.3007034827
-0.2420679058 -0.1076863875 -0.1399923037 -0.8802782882 0.4485562545 -0.1546202508
-0.2422141740 -0.1082065110 -0.1406684643 -0.8802782882 0.4485562545 -0.1546202508
-0.2423604422 -0.1087266346 -0.1413446250 -0.8802782882 0.4485562545 -0.1546202508
-0.2425067103 -0.1092467581 -0.1420207856 -0.8802782882 0.4485562545 -0.1546202508
-0.2426529785 -0.1097668817 -0.1426969462 -0.9217821010 0.2890089506 -0.2584406795
0.0483918476 0.3190159497 0.4147207347 0.7733703174 0.5601926495 0.2967870410
0.0478324122 0.3194503966 0.4152855156 0.7649411088 0.5506692081 0.3341085503
0.0472729767 0.3198848434 0.4158502965 0.7649411088 0.5506692081 0.3341085503
0.0467135413 0.3203192903 0.4164150774 0.7649411088 0.5506692081 0.3341085503
0.0461541058 0.3207537371 0.4169798583 0.7649411088 0.5506692081 0.3341085503
0.0547508427 0.3138174579 0.4079626953 0.7733703174 0.5601926495 0.2967870410
0.0531610940 0.3151170809 0.4096522051 0.7733703174 0.5601926495 0.2967870410
0.0515713452 0.3164167038 0.4113417150 0.7733703174 0.5601926495 0.2967870410
0.0499815964 0.3177163268 0.4130312248 0.7733703174 0.5601926495 0.2967870410
0.0483918476 0.3190159497 0.4147207347 0.7733703174 0.5601926495 0.2967870410
0.0587527822 0.3087142987 0.4013285883 0.9454567208 0.0516629808 0.3216248211
0.0577522974 0.3099900885 0.4029871151 0.8893465486 0.3924675505 0.2345888708
0.0567518125 0.3112658783 0.4046456418 0.8893465486 0.3924675505 0.2345888708
0.0557513276 0.3125416681 0.4063041686 0.8893465486 0.3924675505 0.2345888708
0.0547508427 0.3138174579 0.4079626953 0.7733703174 0.5601926495 0.2967870410
0.0602340049 0.3057332283 0.3974531968 0.9735259902 -0.1290749115 0.1886446754
0.0598636992 0.3064784959 0.3984220447 0.9454567208 0.0516629808 0.3216248211
0.0594933936 0.3072237635 0.3993908926 0.9454567208 0.0516629808 0.3216248211
0.0591230879 0.3079690311 0.4003597405 0.9454567208 0.0516629808 0.3216248211
0.0587527822 0.3087142987 0.4013285883 0.9454567208 0.0516629808 0.3216248211
0.0606838291 0.3019633825 0.3925523973 0.9886884663 -0.0950684610 0.1160047597
0.0605713730 0.3029058440 0.3937775972 0.9735259902 -0.1290749115 0.1886446754
0.0604589170 0.3038483054 0.3950027971 0.9735259902 -0.1290749115 0.1886446754
0.0603464610 0.3047907669 0.3962279970 0.9735259902 -0.1290749115 0.1886446754
0.0602340049 0.3057332283 0.3974531968 0.9735259902 -0.1290749115 0.1886446754
0.0610498828 0.2954702053 0.3841112669 0.9881496639 -0.1294829076 0.0824282615
0.0609583693 0.2970934996 0.3862215495 0.9886884663 -0.0950684610 0.1160047597
0.0608668559 0.2987167939 0.3883318321 0.9886884663 -0.0950684610 0.1160047597
0.0607753425 0.3003400882 0.3904421147 0.9886884663 -0.0950684610 0.1160047597
0.0606838291 0.3019633825 0.3925523973 0.9886884663 -0.0950684610 0.1160047597
0.0610087657 0.2936503510 0.3817454563 0.9881496639 -0.1294829076 0.0824282615
0.0610190450 0.2941053146 0.3823369090 0.9881496639 -0.1294829076 0.0824282615
0.0610293243 0.2945602782 0.3829283616 0.9881496639 -0.1294829076 0.0824282615
0.0610396035 0.2950152418 0.3835198143 0.9881496639 -0.1294829076 0.0824282615
0.0610498828 0.2954702053 0.3841112669 0.9881496639 -0.1294829076 0.0824282615
0.0589111829 0.2900663422 0.3770862449 0.8793265195 -0.4752548912 -0.0302929122
0.0594355786 0.2909623444 0.3782510477 0.8793265195 -0.4752548912 -0.0302929122
0.0599599743 0.2918583466 0.3794158506 0.8793265195 -0.4752548912 -0.0302929122
0.0604843700 0.2927543488 0.3805806534 0.8793265195 -0.4752548912 -0.0302929122
0.0610087657 0.2936503510 0.3817454563 0.9881496639 -0.1294829076 0.0824282615
0.0555866356 0.2861235853 0.3719606609 0.7530365289 -0.6577453042 0.0175242976
0.0564177724 0.2871092745 0.3732420569 0.7530365289 -0.6577453042 0.0175242976
0.0572489093 0.2880949638 0.3745234529 0.7530365289 -0.6577453042 0.0175242976
0.0580800461 0.2890806530 0.3758048489 0.7530365289 -0.6577453042 0.0175242976
0.0589111829 0.2900663422 0.3770862449 0.8793265195 -0.4752548912 -0.0302929122
0.0458107237 0.2806202136 0.3648062777 0.8811373193 -0.4637289604 -0.0924795964
0.0482547017 0.2819960565 0.3665948735 0.5656793454 -0.8110367135 -0.1490849677
0.0506986797 0.2833718995 0.3683834693 0.5656793454 -0.8110367135 -0.1490849677
0.0531426576 0.2847477424 0.3701720651 0.5656793454 -0.8110367135 -0.1490849677
0.0555866356 0.2861235853 0.3719606609 0.7530365289 -0.6577453042 0.0175242976
0.0442205766 0.2782208101 0.3616870531 0.9519230975 -0.2996629154 0.0635968054
0.0446181134 0.2788206610 0.3624668593 0.8811373193 -0.4637289604 -0.0924795964
0.0450156502 0.2794205118 0.3632466654 0.8811373193 -0.4637289604 -0.0924795964
0.0454131870 0.2800203627 0.3640264716 0.8811373193 -0.4637289604 -0.0924795964
0.0458107237 0.2806202136 0.3648062777 0.8811373193 -0.4637289604 -0.0924795964
0.0439976862 0.2772429944 0.3604158927 0.9541602087 -0.2881107451 0.0810585881
0.0440534088 0.2774874483 0.3607336828 0.9519230975 -0.2996629154 0.0635968054
0.0441091314 0.2777319022 0.3610514729 0.9519230975 -0.2996629154 0.0635968054
0.0441648540 0.2779763561 0.3613692630 0.9519230975 -0.2996629154 0.0635968054
0.0442205766 0.2782208101 0.3616870531 0.9519230975 -0.2996629154 0.0635968054
0.0430628705 0.2723617913 0.3540703288 0.9644171613 -0.2198760377 -0.1468130340
0.0432965744 0.2735820921 0.3556567197 0.9541602087 -0.2881107451 0.0810585881
0.0435302784 0.2748023928 0.3572431107 0.9541602087 -0.2881107451 0.0810585881
0.0437639823 0.2760226936 0.3588295017 0.9541602087 -0.2881107451 0.0810585881
0.0439976862 0.2772429944 0.3604158927 0.9541602087 -0.2881107451 0.0810585881
0.0388838163 0.2625492167 0.3413139817 0.9640265096 -0.2205156429 -0.1484107139
0.0399285798 0.2650023604 0.3445030685 0.9644171613 -0.2198760377 -0.1468130340
0.0409733434 0.2674555040 0.3476921552 0.9644171613 -0.2198760377 -0.1468130340
0.0420181070 0.2699086477 0.3508812420 0.9644171613 -0.2198760377 -0.1468130340
0.0430628705 0.2723617913 0.3540703288 0.9644171613 -0.2198760377 -0.1468130340
0.0383783104 0.2613705463 0.3397817101 0.8774269605 -0.2909154708 0.3814316686
0.0385046869 0.2616652139 0.3401647780 0.9640265096 -0.2205156429 -0.1484107139
0.0386310633 0.2619598815 0.3405478459 0.9640265096 -0.2205156429 -0.1484107139
0.0387574398 0.2622545491 0.3409309138 0.9640265096 -0.2205156429 -0.1484107139
0.0388838163 0.2625492167 0.3413139817 0.9640265096 -0.2205156429 -0.1484107139
0.0403920384 0.2527492525 0.3285740283 0.9160741848 -0.3715162058 0.1509430249
0.0398886064 0.2549045760 0.3313759487 0.8774269605 -0.2909154708 0.3814316686
0.0393851744 0.2570598994 0.3341778692 0.8774269605 -0.2909154708 0.3814316686
0.0388817424 0.2592152228 0.3369797897 0.8774269605 -0.2909154708 0.3814316686
0.0383783104 0.2613705463 0.3397817101 0.8774269605 -0.2909154708 0.3814316686
0.0397723352 0.2495106551 0.3243638516 0.9170324519 -0.3548357173 0.1820524536
0.0399272610 0.2503203045 0.3254163958 0.9160741848 -0.3715162058 0.1509430249
0.0400821868 0.2511299538 0.3264689400 0.9160741848 -0.3715162058 0.1509430249
0.0402371126 0.2519396032 0.3275214841 0.9160741848 -0.3715162058 0.1509430249
0.0403920384 0.2527492525 0.3285740283 0.9160741848 -0.3715162058 0.1509430249
0.0395346052 0.2476657655 0.3219654952 0.9170324519 -0.3548357173 0.1820524536
0.0395940377 0.2481269879 0.3225650843 0.9170324519 -0.3548357173 0.1820524536
0.0396534702 0.2485882103 0.3231646734 0.9170324519 -0.3548357173 0.1820524536
0.0397129027 0.2490494327 0.3237642625 0.9170324519 -0.3548357173 0.1820524536
0.0397723352 0.2495106551 0.3243638516 0.9170324519 -0.3548357173 0.1820524536
0.0341732485 0.2424220571 0.3151486742 0.8339305317 -0.4637658357 -0.2991339466
0.0355135876 0.2437329842 0.3168528795 0.8339305317 -0.4637658357 -0.2991339466
0.0368539268 0.2450439113 0.3185570847 0.8339305317 -0.4637658357 -0.2991339466
0.0381942660 0.2463548384 0.3202612900 0.8339305317 -0.4637658357 -0.2991339466
0.0395346052 0.2476657655 0.3219654952 0.9170324519 -0.3548357173 0.1820524536
0.0313373852 0.2405860925 0.3127619202 0.7195836926 -0.5332507541 -0.4447953941
0.0320463510 0.2410450836 0.3133586087 0.7195836926 -0.5332507541 -0.4447953941
0.0327553168 0.2415040748 0.3139552972 0.7195836926 -0.5332507541 -0.4447953941
0.0334642827 0.2419630659 0.3145519857 0.7195836926 -0.5332507541 -0.4447953941
0.0341732485 0.2424220571 0.3151486742 0.8339305317 -0.4637658357 -0.2991339466
0.0289540705 0.2388364323 0.3104873620 0.7555548867 -0.5316708649 -0.3827047224
0.0295498992 0.2392738473 0.3110560015 0.7555548867 -0.5316708649 -0.3827047224
0.0301457279 0.2397112624 0.3116246411 0.7555548867 -0.5316708649 -0.3827047224
0.0307415565 0.2401486774 0.3121932806 0.7555548867 -0.5316708649 -0.3827047224
0.0313373852 0.2405860925 0.3127619202 0.7195836926 -0.5332507541 -0.4447953941
0.0132749145 0.2316172585 0.3011024360 0.7254273180 -0.6295623039 -0.2782202578
0.0171947035 0.2334220519 0.3034486675 0.5868631782 -0.6539720545 -0.4774014684
0.0211144925 0.2352268454 0.3057948990 0.5868631782 -0.6539720545 -0.4774014684
0.0250342815 0.2370316388 0.3081411305 0.5868631782 -0.6539720545 -0.4774014684
0.0289540705 0.2388364323 0.3104873620 0.7555548867 -0.5316708649 -0.3827047224
0.0099213829 0.2291630376 0.2979119489 0.5094354075 -0.7699372012 -0.3842815006
0.0107597658 0.2297765928 0.2987095707 0.7254273180 -0.6295623039 -0.2782202578
0.0115981487 0.2303901480 0.2995071924 0.7254273180 -0.6295623039 -0.2782202578
0.0124365316 0.2310037032 0.3003048142 0.7254273180 -0.6295623039 -0.2782202578
0.0132749145 0.2316172585 0.3011024360 0.7254273180 -0.6295623039 -0.2782202578
-0.0018938192 0.2244217480 0.2917482724 0.5094354075 -0.7699372012 -0.3842815006
0.0010599814 0.2256070704 0.2932891915 0.5094354075 -0.7699372012 -0.3842815006
