ply
format ascii 1.0
comment n_points_per_edge=5 
element vertex 588
property float x
property float y
property float z
property float nx
property float ny
property float nz
element face 0
property list uchar int vertex_index
end_header
-0.5190734679 0.8577243473 0.6329292274 -0.2451171234 0.6664958459 0.7040602838
-0.5190734679 0.8598344336 0.6306128048 -0.3106792078 0.7026823827 0.6400905396
-0.5190734679 0.8619445200 0.6282963821 -0.3106792078 0.7026823827 0.6400905396
-0.5190734679 0.8640546064 0.6259799595 -0.3106792078 0.7026823827 0.6400905396
-0.5190734679 0.8661646928 0.6236635369 -0.3106792078 0.7026823827 0.6400905396
-0.5190734679 0.8409982435 0.6487629247 -0.2451171234 0.6664958459 0.7040602838
-0.5190734679 0.8451797694 0.6448045004 -0.2451171234 0.6664958459 0.7040602838
-0.5190734679 0.8493612954 0.6408460760 -0.2451171234 0.6664958459 0.7040602838
-0.5190734679 0.8535428213 0.6368876517 -0.2451171234 0.6664958459 0.7040602838
-0.5190734679 0.8577243473 0.6329292274 -0.2451171234 0.6664958459 0.7040602838
-0.5190734679 0.8266037596 0.6584873855 -0.2566861971 0.5410393044 0.8008674468
-0.5190734679 0.8302023805 0.6560562703 -0.2566861971 0.5410393044 0.8008674468
-0.5190734679 0.8338010015 0.6536251551 -0.2566861971 0.5410393044 0.8008674468
-0.5190734679 0.8373996225 0.6511940399 -0.2566861971 0.5410393044 0.8008674468
-0.5190734679 0.8409982435 0.6487629247 -0.2451171234 0.6664958459 0.7040602838
-0.5190734679 0.8241474025 0.6598504511 -0.1776255447 0.4774978481 0.8604911219
-0.5190734679 0.8247614918 0.6595096847 -0.1776255447 0.4774978481 0.8604911219
-0.5190734679 0.8253755810 0.6591689183 -0.1776255447 0.4774978481 0.8604911219
-0.5190734679 0.8259896703 0.6588281519 -0.1776255447 0.4774978481 0.8604911219
-0.5190734679 0.8266037596 0.6584873855 -0.2566861971 0.5410393044 0.8008674468
-0.5190734679 0.8004047167 0.6708225783 -0.1671545043 0.2864922263 0.9433883484
-0.5190734679 0.8063403882 0.6680795465 -0.2010904367 0.4109291997 0.8892130392
-0.5190734679 0.8122760596 0.6653365147 -0.2010904367 0.4109291997 0.8892130392
-0.5190734679 0.8182117311 0.6625934829 -0.2010904367 0.4109291997 0.8892130392
-0.5190734679 0.8241474025 0.6598504511 -0.1776255447 0.4774978481 0.8604911219
-0.5190734679 0.7961742874 0.6721072954 -0.1661978617 0.2897414419 0.9425646755
-0.5190734679 0.7972318947 0.6717861161 -0.1671545043 0.2864922263 0.9433883484
-0.5190734679 0.7982895020 0.6714649368 -0.1671545043 0.2864922263 0.9433883484
-0.5190734679 0.7993471094 0.6711437576 -0.1671545043 0.2864922263 0.9433883484
-0.5190734679 0.8004047167 0.6708225783 -0.1671545043 0.2864922263 0.9433883484
-0.5190734679 0.7854614033 0.6754003970 -0.1661978617 0.2897414419 0.9425646755
-0.5190734679 0.7881396243 0.6745771216 -0.1661978617 0.2897414419 0.9425646755
-0.5190734679 0.7908178453 0.6737538462 -0.1661978617 0.2897414419 0.9425646755
-0.5190734679 0.7934960664 0.6729305708 -0.1661978617 0.2897414419 0.9425646755
-0.5190734679 0.7961742874 0.6721072954 -0.1661978617 0.2897414419 0.9425646755
-0.5190734679 0.7691869797 0.6802335799 -0.1819262133 0.2799403325 0.9426220150
-0.5190734679 0.7732555856 0.6790252842 -0.1819262133 0.2799403325 0.9426220150
-0.5190734679 0.7773241915 0.6778169885 -0.1819262133 0.2799403325 0.9426220150
-0.5190734679 0.7813927974 0.6766086927 -0.1819262133 0.2799403325 0.9426220150
-0.5190734679 0.7854614033 0.6754003970 -0.1661978617 0.2897414419 0.9425646755
-0.5190734679 0.7281561560 0.6857574855 -0.2062259170 0.1305559686 0.9697556446
-0.5190734679 0.7384138619 0.6843765091 -0.2062259170 0.1305559686 0.9697556446
-0.5190734679 0.7486715679 0.6829955327 -0.2062259170 0.1305559686 0.9697556446
-0.5190734679 0.7589292738 0.6816145563 -0.2062259170 0.1305559686 0.9697556446
-0.5190734679 0.7691869797 0.6802335799 -0.1819262133 0.2799403325 0.9426220150
-0.5190734679 0.7278056553 0.6858130855 -0.1563247391 0.1547451116 0.9755083425
-0.5190734679 0.7278932805 0.6857991855 -0.1563247391 0.1547451116 0.9755083425
-0.5190734679 0.7279809056 0.6857852855 -0.1563247391 0.1547451116 0.9755083425
-0.5190734679 0.7280685308 0.6857713855 -0.1563247391 0.1547451116 0.9755083425
-0.5190734679 0.7281561560 0.6857574855 -0.2062259170 0.1305559686 0.9697556446
-0.5190734679 0.7275980092 0.6858368015 -0.0916487417 0.0370655144 0.9951013294
-0.5190734679 0.7276499207 0.6858308725 -0.1652130020 0.1119169152 0.9798873752
-0.5190734679 0.7277018322 0.6858249435 -0.1652130020 0.1119169152 0.9798873752
-0.5190734679 0.7277537438 0.6858190145 -0.1652130020 0.1119169152 0.9798873752
-0.5190734679 0.7278056553 0.6858130855 -0.1563247391 0.1547451116 0.9755083425
-0.5190734679 0.7269108989 0.6858623948 -0.0432820654 0.0272723457 0.9986905837
-0.5190734679 0.7270826765 0.6858559965 -0.0916487417 0.0370655144 0.9951013294
-0.5190734679 0.7272544541 0.6858495982 -0.0916487417 0.0370655144 0.9951013294
-0.5190734679 0.7274262316 0.6858431998 -0.0916487417 0.0370655144 0.9951013294
-0.5190734679 0.7275980092 0.6858368015 -0.0916487417 0.0370655144 0.9951013294
-0.5190734679 0.6734679442 0.6873218008 -0.0122485779 0.0015815843 0.9999237326
-0.5190734679 0.6868286829 0.6869569493 -0.0432820654 0.0272723457 0.9986905837
-0.5190734679 0.7001894215 0.6865920978 -0.0432820654 0.0272723457 0.9986905837
-0.5190734679 0.7135501602 0.6862272463 -0.0432820654 0.0272723457 0.9986905837
-0.5190734679 0.7269108989 0.6858623948 -0.0432820654 0.0272723457 0.9986905837
-0.5190734679 0.5565452316 0.6875067508 -0.0122485779 0.0015815843 0.9999237326
-0.5190734679 0.5857759097 0.6874605133 -0.0122485779 0.0015815843 0.9999237326
-0.5190734679 0.6150065879 0.6874142758 -0.0122485779 0.0015815843 0.9999237326
-0.5190734679 0.6442372660 0.6873680383 -0.0122485779 0.0015815843 0.9999237326
-0.5190734679 0.6734679442 0.6873218008 -0.0122485779 0.0015815843 0.9999237326
-0.5190734679 0.5505036685 0.6874723767 -0.0621557079 -0.0056784758 0.9980503108
-0.5190734679 0.5520140593 0.6874809702 -0.0621557079 -0.0056784758 0.9980503108
-0.5190734679 0.5535244500 0.6874895637 -0.0621557079 -0.0056784758 0.9980503108
-0.5190734679 0.5550348408 0.6874981573 -0.0621557079 -0.0056784758 0.9980503108
-0.5190734679 0.5565452316 0.6875067508 -0.0122485779 0.0015815843 0.9999237326
-0.5190734679 0.5481574702 0.6875058260 -0.0213663937 -0.0009901239 0.9997712223
-0.5190734679 0.5487440197 0.6874974637 -0.0648808954 0.0142250431 0.9977916203
-0.5190734679 0.5493305693 0.6874891013 -0.0648808954 0.0142250431 0.9977916203
-0.5190734679 0.5499171189 0.6874807390 -0.0648808954 0.0142250431 0.9977916203
-0.5190734679 0.5505036685 0.6874723767 -0.0621557079 -0.0056784758 0.9980503108
-0.5190734679 0.3889260050 0.6873481231 -0.0213663937 -0.0009901239 0.9997712223
-0.5190734679 0.4287338713 0.6873875488 -0.0213663937 -0.0009901239 0.9997712223
-0.5190734679 0.4685417376 0.6874269745 -0.0213663937 -0.0009901239 0.9997712223
-0.5190734679 0.5083496039 0.6874664003 -0.0213663937 -0.0009901239 0.9997712223
-0.5190734679 0.5481574702 0.6875058260 -0.0213663937 -0.0009901239 0.9997712223
-0.5190734679 0.3834924139 0.6873103768 -0.0482998869 -0.0069386085 0.9988087788
-0.5190734679 0.3848508117 0.6873198133 -0.0482998869 -0.0069386085 0.9988087788
-0.5190734679 0.3862092094 0.6873292499 -0.0482998869 -0.0069386085 0.9988087788
-0.5190734679 0.3875676072 0.6873386865 -0.0482998869 -0.0069386085 0.9988087788
-0.5190734679 0.3889260050 0.6873481231 -0.0213663937 -0.0009901239 0.9997712223
-0.5190734679 0.3802772704 0.6873302717 -0.0324330023 0.0021625343 0.9994715723
-0.5190734679 0.3810810563 0.6873252980 -0.0383362434 0.0061831734 0.9992457660
-0.5190734679 0.3818848421 0.6873203242 -0.0383362434 0.0061831734 0.9992457660
-0.5190734679 0.3826886280 0.6873153505 -0.0383362434 0.0061831734 0.9992457660
-0.5190734679 0.3834924139 0.6873103768 -0.0482998869 -0.0069386085 0.9988087788
-0.5190734679 0.3690922396 0.6873544712 -0.0008828652 -0.0012564074 0.9999988210
-0.5190734679 0.3718884973 0.6873484214 -0.0324330023 0.0021625343 0.9994715723
-0.5190734679 0.3746847550 0.6873423715 -0.0324330023 0.0021625343 0.9994715723
-0.5190734679 0.3774810127 0.6873363216 -0.0324330023 0.0021625343 0.9994715723
-0.5190734679 0.3802772704 0.6873302717 -0.0324330023 0.0021625343 0.9994715723
-0.5190734679 0.2711555749 0.6872314094 -0.0008828652 -0.0012564074 0.9999988210
-0.5190734679 0.2956397410 0.6872621748 -0.0008828652 -0.0012564074 0.9999988210
-0.5190734679 0.3201239072 0.6872929403 -0.0008828652 -0.0012564074 0.9999988210
-0.5190734679 0.3446080734 0.6873237058 -0.0008828652 -0.0012564074 0.9999988210
-0.5190734679 0.3690922396 0.6873544712 -0.0008828652 -0.0012564074 0.9999988210
-0.5190734679 0.1680306151 0.6872551226 0.0001424890 -0.0006113301 0.9999998030
-0.5190734679 0.1938118550 0.6872491943 -0.0010695387 0.0002300133 0.9999994016
-0.5190734679 0.2195930950 0.6872432660 -0.0010695387 0.0002300133 0.9999994016
-0.5190734679 0.2453743349 0.6872373377 -0.0010695387 0.0002300133 0.9999994016
-0.5190734679 0.2711555749 0.6872314094 -0.0008828652 -0.0012564074 0.9999988210
-0.5190734679 0.1606573257 0.6872506177 0.0000638155 -0.0004086564 0.9999999145
-0.5190734679 0.1625006481 0.6872517439 0.0001424890 -0.0006113301 0.9999998030
-0.5190734679 0.1643439704 0.6872528701 0.0001424890 -0.0006113301 0.9999998030
-0.5190734679 0.1661872927 0.6872539963 0.0001424890 -0.0006113301 0.9999998030
-0.5190734679 0.1680306151 0.6872551226 0.0001424890 -0.0006113301 0.9999998030
-0.5190734679 0.1543621006 0.6872480456 0.0000638155 -0.0004086564 0.9999999145
-0.5190734679 0.1559359068 0.6872486886 0.0000638155 -0.0004086564 0.9999999145
-0.5190734679 0.1575097131 0.6872493316 0.0000638155 -0.0004086564 0.9999999145
-0.5190734679 0.1590835194 0.6872499747 0.0000638155 -0.0004086564 0.9999999145
-0.5190734679 0.1606573257 0.6872506177 0.0000638155 -0.0004086564 0.9999999145
-0.5190734679 0.0622988172 0.6871554822 -0.0002408297 -0.0010055834 0.9999994654
-0.5190734679 0.0853146380 0.6871786230 -0.0002408297 -0.0010055834 0.9999994654
-0.5190734679 0.1083304589 0.6872017639 -0.0002408297 -0.0010055834 0.9999994654
-0.5190734679 0.1313462797 0.6872249047 -0.0002408297 -0.0010055834 0.9999994654
-0.5190734679 0.1543621006 0.6872480456 0.0000638155 -0.0004086564 0.9999999145
-0.5190734679 0.0513172188 0.6871595263 -0.0005183932 -0.0002449568 0.9999998356
-0.5190734679 0.0540626184 0.6871585152 -0.0002759901 0.0003688720 0.9999998939
-0.5190734679 0.0568080180 0.6871575042 -0.0002759901 0.0003688720 0.9999998939
-0.5190734679 0.0595534176 0.6871564932 -0.0002759901 0.0003688720 0.9999998939
-0.5190734679 0.0622988172 0.6871554822 -0.0002408297 -0.0010055834 0.9999994654
-0.5190734679 -0.0282080080 0.6871400189 -0.0003191907 -0.0010655019 0.9999993814
-0.5190734679 -0.0083267013 0.6871448957 -0.0005183932 -0.0002449568 0.9999998356
-0.5190734679 0.0115546054 0.6871497726 -0.0005183932 -0.0002449568 0.9999998356
-0.5190734679 0.0314359121 0.6871546494 -0.0005183932 -0.0002449568 0.9999998356
-0.5190734679 0.0513172188 0.6871595263 -0.0005183932 -0.0002449568 0.9999998356
-0.5190734679 -0.0433057606 0.6871239356 -0.0003191907 -0.0010655019 0.9999993814
-0.5190734679 -0.0395313224 0.6871279564 -0.0003191907 -0.0010655019 0.9999993814
-0.5190734679 -0.0357568843 0.6871319772 -0.0003191907 -0.0010655019 0.9999993814
-0.5190734679 -0.0319824461 0.6871359981 -0.0003191907 -0.0010655019 0.9999993814
-0.5190734679 -0.0282080080 0.6871400189 -0.0003191907 -0.0010655019 0.9999993814
-0.5190734679 -0.0967005049 0.6870204212 -0.0008036115 0.0010926229 0.9999990802
-0.5190734679 -0.0833518188 0.6870462998 -0.0007220519 -0.0019390559 0.9999978593
-0.5190734679 -0.0700031328 0.6870721784 -0.0007220519 -0.0019390559 0.9999978593
-0.5190734679 -0.0566544467 0.6870980570 -0.0007220519 -0.0019390559 0.9999978593
-0.5190734679 -0.0433057606 0.6871239356 -0.0003191907 -0.0010655019 0.9999993814
-0.5190734679 -0.1285203781 0.6870551939 -0.0008036115 0.0010926229 0.9999990802
-0.5190734679 -0.1205654098 0.6870465007 -0.0008036115 0.0010926229 0.9999990802
-0.5190734679 -0.1126104415 0.6870378076 -0.0008036115 0.0010926229 0.9999990802
-0.5190734679 -0.1046554732 0.6870291144 -0.0008036115 0.0010926229 0.9999990802
-0.5190734679 -0.0967005049 0.6870204212 -0.0008036115 0.0010926229 0.9999990802
-0.5190734679 -0.2393242210 0.6870739100 0.0000939094 -0.0010820776 0.9999994101
-0.5190734679 -0.2116232602 0.6870692310 -0.0016270719 0.0001690194 0.9999986620
-0.5190734679 -0.1839222995 0.6870645520 -0.0016270719 0.0001690194 0.9999986620
-0.5190734679 -0.1562213388 0.6870598729 -0.0016270719 0.0001690194 0.9999986620
-0.5190734679 -0.1285203781 0.6870551939 -0.0008036115 0.0010926229 0.9999990802
-0.5190734679 -0.2683925041 0.6870424478 -0.0015251647 -0.0067580075 0.9999760013
-0.5190734679 -0.2611254333 0.6870503134 0.0000939094 -0.0010820776 0.9999994101
-0.5190734679 -0.2538583625 0.6870581789 0.0000939094 -0.0010820776 0.9999994101
-0.5190734679 -0.2465912917 0.6870660445 0.0000939094 -0.0010820776 0.9999994101
-0.5190734679 -0.2393242210 0.6870739100 0.0000939094 -0.0010820776 0.9999994101
-0.5190734679 -0.3020327967 0.6868151072 -0.0086821783 -0.0100000434 0.9999123056
-0.5190734679 -0.2936227235 0.6868719423 -0.0015251647 -0.0067580075 0.9999760013
-0.5190734679 -0.2852126504 0.6869287775 -0.0015251647 -0.0067580075 0.9999760013
-0.5190734679 -0.2768025772 0.6869856127 -0.0015251647 -0.0067580075 0.9999760013
-0.5190734679 -0.2683925041 0.6870424478 -0.0015251647 -0.0067580075 0.9999760013
-0.5190734679 -0.3447653930 0.6863877309 -0.0086821783 -0.0100000434 0.9999123056
-0.5190734679 -0.3340822439 0.6864945750 -0.0086821783 -0.0100000434 0.9999123056
-0.5190734679 -0.3233990948 0.6866014190 -0.0086821783 -0.0100000434 0.9999123056
-0.5190734679 -0.3127159457 0.6867082631 -0.0086821783 -0.0100000434 0.9999123056
-0.5190734679 -0.3020327967 0.6868151072 -0.0086821783 -0.0100000434 0.9999123056
-0.5190734679 -0.3679056322 0.6844896150 -0.0743677065 -0.0815270772 0.9938927407
-0.5190734679 -0.3621205724 0.6849641440 -0.0743677065 -0.0815270772 0.9938927407
-0.5190734679 -0.3563355126 0.6854386730 -0.0743677065 -0.0815270772 0.9938927407
-0.5190734679 -0.3505504528 0.6859132019 -0.0743677065 -0.0815270772 0.9938927407
-0.5190734679 -0.3447653930 0.6863877309 -0.0086821783 -0.0100000434 0.9999123056
-0.5190734679 -0.3815016612 0.6822723038 -0.0910907177 -0.1602901606 0.9828578461
-0.5190734679 -0.3781026539 0.6828266316 -0.0910907177 -0.1602901606 0.9828578461
-0.5190734679 -0.3747036467 0.6833809594 -0.0910907177 -0.1602901606 0.9828578461
-0.5190734679 -0.3713046394 0.6839352872 -0.0910907177 -0.1602901606 0.9828578461
-0.5190734679 -0.3679056322 0.6844896150 -0.0743677065 -0.0815270772 0.9938927407
-0.5190734679 -0.4010962697 0.6780533188 -0.1351855081 -0.2085578500 0.9686219601
-0.5190734679 -0.3961976175 0.6791080650 -0.1351855081 -0.2085578500 0.9686219601
-0.5190734679 -0.3912989654 0.6801628113 -0.1351855081 -0.2085578500 0.9686219601
-0.5190734679 -0.3864003133 0.6812175575 -0.1351855081 -0.2085578500 0.9686219601
-0.5190734679 -0.3815016612 0.6822723038 -0.0910907177 -0.1602901606 0.9828578461
-0.5190734679 -0.4197821537 0.6719067765 -0.1569247012 -0.3085979369 0.9381588093
-0.5190734679 -0.4151106827 0.6734434121 -0.1569247012 -0.3085979369 0.9381588093
-0.5190734679 -0.4104392117 0.6749800476 -0.1569247012 -0.3085979369 0.9381588093
-0.5190734679 -0.4057677407 0.6765166832 -0.1569247012 -0.3085979369 0.9381588093
-0.5190734679 -0.4010962697 0.6780533188 -0.1351855081 -0.2085578500 0.9686219601
-0.5190734679 -0.4299944616 0.6682575789 -0.1457872041 -0.3328993494 0.9316244492
-0.5190734679 -0.4274413846 0.6691698783 -0.1457872041 -0.3328993494 0.9316244492
-0.5190734679 -0.4248883076 0.6700821777 -0.1457872041 -0.3328993494 0.9316244492
-0.5190734679 -0.4223352307 0.6709944771 -0.1457872041 -0.3328993494 0.9316244492
-0.5190734679 -0.4197821537 0.6719067765 -0.1569247012 -0.3085979369 0.9381588093
-0.5190734679 -0.4489389784 0.6571525758 -0.2013687340 -0.4953468847 0.8450337844
-0.5190734679 -0.4442028492 0.6599288266 -0.2013687340 -0.4953468847 0.8450337844
-0.5190734679 -0.4394667200 0.6627050774 -0.2013687340 -0.4953468847 0.8450337844
-0.5190734679 -0.4347305908 0.6654813281 -0.2013687340 -0.4953468847 0.8450337844
-0.5190734679 -0.4299944616 0.6682575789 -0.1457872041 -0.3328993494 0.9316244492
-0.5190734679 -0.4586685802 0.6507924387 -0.1716767099 -0.5390340762 0.8246025539
-0.5190734679 -0.4562361797 0.6523824730 -0.1716767099 -0.5390340762 0.8246025539
-0.5190734679 -0.4538037793 0.6539725073 -0.1716767099 -0.5390340762 0.8246025539
-0.5190734679 -0.4513713789 0.6555625415 -0.1716767099 -0.5390340762 0.8246025539
-0.5190734679 -0.4489389784 0.6571525758 -0.2013687340 -0.4953468847 0.8450337844
-0.5190734679 -0.4684211247 0.6413806924 -0.1972103613 -0.6807854341 0.7054355152
-0.5190734679 -0.4659829886 0.6437336289 -0.1972103613 -0.6807854341 0.7054355152
-0.5190734679 -0.4635448524 0.6460865655 -0.1972103613 -0.6807854341 0.7054355152
-0.5190734679 -0.4611067163 0.6484395021 -0.1972103613 -0.6807854341 0.7054355152
-0.5190734679 -0.4586685802 0.6507924387 -0.1716767099 -0.5390340762 0.8246025539
-0.5190734679 -0.4808090114 0.6287598542 -0.2240883861 -0.6955128792 0.6826757869
-0.5190734679 -0.4777120397 0.6319150638 -0.2240883861 -0.6955128792 0.6826757869
-0.5190734679 -0.4746150680 0.6350702733 -0.2240883861 -0.6955128792 0.6826757869
-0.5190734679 -0.4715180964 0.6382254828 -0.2240883861 -0.6955128792 0.6826757869
-0.5190734679 -0.4684211247 0.6413806924 -0.1972103613 -0.6807854341 0.7054355152
-0.3625631664 -0.4579163024 -0.0886629465 0.2028966855 -0.0646899196 -0.9770609752
-0.3625631664 -0.4595901711 -0.0885521223 0.2028966855 -0.0646899196 -0.9770609752
-0.3625631664 -0.4612640399 -0.0884412982 0.2028966855 -0.0646899196 -0.9770609752
-0.3625631664 -0.4629379086 -0.0883304740 0.2028966855 -0.0646899196 -0.9770609752
-0.3625631664 -0.4646117774 -0.0882196498 0.1438513265 -0.2966746829 -0.9440820560
-0.3625631664 -0.4412081081 -0.0884551054 0.1999525153 0.0121872602 -0.9797297905
-0.3625631664 -0.4453851567 -0.0885070657 0.1999525153 0.0121872602 -0.9797297905
-0.3625631664 -0.4495622053 -0.0885590260 0.1999525153 0.0121872602 -0.9797297905
-0.3625631664 -0.4537392538 -0.0886109862 0.1999525153 0.0121872602 -0.9797297905
-0.3625631664 -0.4579163024 -0.0886629465 0.2028966855 -0.0646899196 -0.9770609752
-0.3625631664 -0.4409584631 -0.0883835589 0.2848255315 0.2640906397 -0.9214828000
-0.3625631664 -0.4410208744 -0.0884014455 0.2848255315 0.2640906397 -0.9214828000
-0.3625631664 -0.4410832856 -0.0884193322 0.2848255315 0.2640906397 -0.9214828000
-0.3625631664 -0.4411456969 -0.0884372188 0.2848255315 0.2640906397 -0.9214828000
-0.3625631664 -0.4412081081 -0.0884551054 0.1999525153 0.0121872602 -0.9797297905
-0.3625631664 -0.4399238981 -0.0879718462 0.2811369911 0.3548410264 -0.8916556725
-0.3625631664 -0.4401825394 -0.0880747744 0.2811369911 0.3548410264 -0.8916556725
-0.3625631664 -0.4404411806 -0.0881777025 0.2811369911 0.3548410264 -0.8916556725
-0.3625631664 -0.4406998218 -0.0882806307 0.2811369911 0.3548410264 -0.8916556725
-0.3625631664 -0.4409584631 -0.0883835589 0.2848255315 0.2640906397 -0.9214828000
-0.3625631664 -0.4216250673 -0.0826232245 0.3985523891 0.2573092004 -0.8803112907
-0.3625631664 -0.4261997750 -0.0839603799 0.3985523891 0.2573092004 -0.8803112907
-0.3625631664 -0.4307744827 -0.0852975354 0.3985523891 0.2573092004 -0.8803112907
-0.3625631664 -0.4353491904 -0.0866346908 0.3985523891 0.2573092004 -0.8803112907
-0.3625631664 -0.4399238981 -0.0879718462 0.2811369911 0.3548410264 -0.8916556725
-0.3625631664 -0.4094957584 -0.0730578876 0.3842803651 0.5716815805 -0.7249198380
-0.3625631664 -0.4125280856 -0.0754492218 0.3842803651 0.5716815805 -0.7249198380
-0.3625631664 -0.4155604128 -0.0778405560 0.3842803651 0.5716815805 -0.7249198380
-0.3625631664 -0.4185927401 -0.0802318903 0.3842803651 0.5716815805 -0.7249198380
-0.3625631664 -0.4216250673 -0.0826232245 0.3985523891 0.2573092004 -0.8803112907
-0.3625631664 -0.4043207643 -0.0682429906 0.4247090384 0.7600674099 -0.4918533980
-0.3625631664 -0.4056145128 -0.0694467148 0.4504356833 0.6081602182 -0.6536427496
-0.3625631664 -0.4069082613 -0.0706504391 0.4504356833 0.6081602182 -0.6536427496
-0.3625631664 -0.4082020099 -0.0718541633 0.4504356833 0.6081602182 -0.6536427496
-0.3625631664 -0.4094957584 -0.0730578876 0.3842803651 0.5716815805 -0.7249198380
-0.3625631664 -0.3917842621 -0.0488701585 0.5352805968 0.6892971773 -0.4882049611
-0.3625631664 -0.3949183876 -0.0537133665 0.4247090384 0.7600674099 -0.4918533980
-0.3625631664 -0.3980525132 -0.0585565745 0.4247090384 0.7600674099 -0.4918533980
-0.3625631664 -0.4011866388 -0.0633997825 0.4247090384 0.7600674099 -0.4918533980
-0.3625631664 -0.4043207643 -0.0682429906 0.4247090384 0.7600674099 -0.4918533980
-0.3625631664 -0.3907784845 -0.0474500996 0.5352805968 0.6892971773 -0.4882049611
-0.3625631664 -0.3910299289 -0.0478051144 0.5352805968 0.6892971773 -0.4882049611
-0.3625631664 -0.3912813733 -0.0481601291 0.5352805968 0.6892971773 -0.4882049611
-0.3625631664 -0.3915328177 -0.0485151438 0.5352805968 0.6892971773 -0.4882049611
-0.3625631664 -0.3917842621 -0.0488701585 0.5352805968 0.6892971773 -0.4882049611
-0.3625631664 -0.3906720163 -0.0471937290 0.5166145629 0.7907410504 -0.3283869436
-0.3625631664 -0.3906986333 -0.0472578217 0.5166145629 0.7907410504 -0.3283869436
-0.3625631664 -0.3907252504 -0.0473219143 0.5166145629 0.7907410504 -0.3283869436
-0.3625631664 -0.3907518674 -0.0473860070 0.5166145629 0.7907410504 -0.3283869436
-0.3625631664 -0.3907784845 -0.0474500996 0.5352805968 0.6892971773 -0.4882049611
-0.3625631664 -0.3905575755 -0.0462558438 0.5685667944 0.8165806398 -0.0996386423
-0.3625631664 -0.3905861857 -0.0464903151 0.5685667944 0.8165806398 -0.0996386423
-0.3625631664 -0.3906147959 -0.0467247864 0.5685667944 0.8165806398 -0.0996386423
-0.3625631664 -0.3906434061 -0.0469592577 0.5685667944 0.8165806398 -0.0996386423
-0.3625631664 -0.3906720163 -0.0471937290 0.5166145629 0.7907410504 -0.3283869436
-0.3625631664 -0.3879602898 -0.0179725414 0.6051472830 0.7927778716 -0.0728011823
-0.3625631664 -0.3886096112 -0.0250433670 0.6051472830 0.7927778716 -0.0728011823
-0.3625631664 -0.3892589326 -0.0321141926 0.6051472830 0.7927778716 -0.0728011823
-0.3625631664 -0.3899082541 -0.0391850182 0.6051472830 0.7927778716 -0.0728011823
-0.3625631664 -0.3905575755 -0.0462558438 0.5685667944 0.8165806398 -0.0996386423
-0.3625631664 -0.3901178222 -0.0084147739 0.5709881283 0.7760991508 0.2676614756
-0.3625631664 -0.3895784391 -0.0108042158 0.5158205638 0.8356697415 0.1886404757
-0.3625631664 -0.3890390560 -0.0131936576 0.5158205638 0.8356697415 0.1886404757
-0.3625631664 -0.3884996729 -0.0155830995 0.5158205638 0.8356697415 0.1886404757
-0.3625631664 -0.3879602898 -0.0179725414 0.6051472830 0.7927778716 -0.0728011823
-0.3625631664 -0.3937472486 0.0021089325 0.5709881283 0.7760991508 0.2676614756
-0.3625631664 -0.3928398920 -0.0005219941 0.5709881283 0.7760991508 0.2676614756
-0.3625631664 -0.3919325354 -0.0031529207 0.5709881283 0.7760991508 0.2676614756
-0.3625631664 -0.3910251788 -0.0057838473 0.5709881283 0.7760991508 0.2676614756
-0.3625631664 -0.3901178222 -0.0084147739 0.5709881283 0.7760991508 0.2676614756
-0.3625631664 -0.4033189884 0.0155943477 0.5367409301 0.5713480760 0.6208627466
-0.3625631664 -0.4009260535 0.0122229939 0.5115423049 0.7006958206 0.4973427764
-0.3625631664 -0.3985331185 0.0088516401 0.5115423049 0.7006958206 0.4973427764
-0.3625631664 -0.3961401836 0.0054802863 0.5115423049 0.7006958206 0.4973427764
-0.3625631664 -0.3937472486 0.0021089325 0.5709881283 0.7760991508 0.2676614756
-0.3625631664 -0.4064814739 0.0185046227 0.5367409301 0.5713480760 0.6208627466
-0.3625631664 -0.4056908526 0.0177770539 0.5367409301 0.5713480760 0.6208627466
-0.3625631664 -0.4049002312 0.0170494852 0.5367409301 0.5713480760 0.6208627466
-0.3625631664 -0.4041096098 0.0163219165 0.5367409301 0.5713480760 0.6208627466
-0.3625631664 -0.4033189884 0.0155943477 0.5367409301 0.5713480760 0.6208627466
-0.3625631664 -0.4171092568 0.0259495377 0.4818252728 0.5027538315 0.7176928253
-0.3625631664 -0.4144523110 0.0240883089 0.4818252728 0.5027538315 0.7176928253
-0.3625631664 -0.4117953653 0.0222270802 0.4818252728 0.5027538315 0.7176928253
-0.3625631664 -0.4091384196 0.0203658514 0.4818252728 0.5027538315 0.7176928253
-0.3625631664 -0.4064814739 0.0185046227 0.5367409301 0.5713480760 0.6208627466
-0.3625631664 -0.4292166416 0.0305816646 0.4363983228 0.3215072023 0.8403508926
-0.3625631664 -0.4261897954 0.0294236329 0.4363983228 0.3215072023 0.8403508926
-0.3625631664 -0.4231629492 0.0282656011 0.4363983228 0.3215072023 0.8403508926
-0.3625631664 -0.4201361030 0.0271075694 0.4363983228 0.3215072023 0.8403508926
-0.3625631664 -0.4171092568 0.0259495377 0.4818252728 0.5027538315 0.7176928253
-0.3625631664 -0.4341342309 0.0324422508 0.4233100780 0.0588812316 0.9040694544
-0.3625631664 -0.4329048336 0.0319771043 0.4322200734 0.3191099772 0.8434184196
-0.3625631664 -0.4316754363 0.0315119577 0.4322200734 0.3191099772 0.8434184196
-0.3625631664 -0.4304460390 0.0310468112 0.4322200734 0.3191099772 0.8434184196
-0.3625631664 -0.4292166416 0.0305816646 0.4363983228 0.3215072023 0.8403508926
-0.3625631664 -0.4478239272 0.0333338446 0.3616174451 0.0790038028 0.9289732087
-0.3625631664 -0.4444015031 0.0331109462 0.4233100780 0.0588812316 0.9040694544
-0.3625631664 -0.4409790790 0.0328880477 0.4233100780 0.0588812316 0.9040694544
-0.3625631664 -0.4375566550 0.0326651493 0.4233100780 0.0588812316 0.9040694544
-0.3625631664 -0.4341342309 0.0324422508 0.4233100780 0.0588812316 0.9040694544
-0.3625631664 -0.4557666983 0.0340093295 0.3616174451 0.0790038028 0.9289732087
-0.3625631664 -0.4537810055 0.0338404582 0.3616174451 0.0790038028 0.9289732087
-0.3625631664 -0.4517953128 0.0336715870 0.3616174451 0.0790038028 0.9289732087
-0.3625631664 -0.4498096200 0.0335027158 0.3616174451 0.0790038028 0.9289732087
-0.3625631664 -0.4478239272 0.0333338446 0.3616174451 0.0790038028 0.9289732087
-0.3625631664 -0.4561914291 0.0339790397 0.3445742307 -0.0667782614 0.9363809392
-0.3625631664 -0.4560852464 0.0339866122 0.3445742307 -0.0667782614 0.9363809392
-0.3625631664 -0.4559790637 0.0339941846 0.3445742307 -0.0667782614 0.9363809392
-0.3625631664 -0.4558728810 0.0340017570 0.3445742307 -0.0667782614 0.9363809392
-0.3625631664 -0.4557666983 0.0340093295 0.3616174451 0.0790038028 0.9289732087
-0.3625631664 -0.4770137807 0.0291906433 0.2905726648 -0.2144448508 0.9325132345
-0.3625631664 -0.4718081928 0.0303877424 0.2905726648 -0.2144448508 0.9325132345
-0.3625631664 -0.4666026049 0.0315848415 0.2905726648 -0.2144448508 0.9325132345
-0.3625631664 -0.4613970170 0.0327819406 0.2905726648 -0.2144448508 0.9325132345
-0.3625631664 -0.4561914291 0.0339790397 0.3445742307 -0.0667782614 0.9363809392
-0.3625631664 -0.4821088460 0.0265542569 0.2485554992 -0.4451394429 0.8602738170
-0.3625631664 -0.4808350797 0.0272133535 0.2485554992 -0.4451394429 0.8602738170
-0.3625631664 -0.4795613134 0.0278724501 0.2485554992 -0.4451394429 0.8602738170
-0.3625631664 -0.4782875471 0.0285315467 0.2485554992 -0.4451394429 0.8602738170
-0.3625631664 -0.4770137807 0.0291906433 0.2905726648 -0.2144448508 0.9325132345
-0.3625631664 -0.4933398928 0.0207344716 0.1538193763 -0.7334369586 0.6621252353
-0.3625631664 -0.4905321311 0.0221894179 0.2483128498 -0.4456752872 0.8600664317
-0.3625631664 -0.4877243694 0.0236443642 0.2483128498 -0.4456752872 0.8600664317
-0.3625631664 -0.4849166077 0.0250993106 0.2483128498 -0.4456752872 0.8600664317
-0.3625631664 -0.4821088460 0.0265542569 0.2485554992 -0.4451394429 0.8602738170
-0.3625631664 -0.5008585714 0.0124060283 0.1897227667 -0.6983774426 0.6901262344
-0.3625631664 -0.4989789017 0.0144881391 0.1538193763 -0.7334369586 0.6621252353
-0.3625631664 -0.4970992321 0.0165702500 0.1538193763 -0.7334369586 0.6621252353
-0.3625631664 -0.4952195624 0.0186523608 0.1538193763 -0.7334369586 0.6621252353
-0.3625631664 -0.4933398928 0.0207344716 0.1538193763 -0.7334369586 0.6621252353
-0.3625631664 -0.5051111088 0.0081026470 0.1146217141 -0.7970651894 0.5929156319
-0.3625631664 -0.5040479745 0.0091784923 0.1897227667 -0.6983774426 0.6901262344
-0.3625631664 -0.5029848401 0.0102543377 0.1897227667 -0.6983774426 0.6901262344
-0.3625631664 -0.5019217058 0.0113301830 0.1897227667 -0.6983774426 0.6901262344
-0.3625631664 -0.5008585714 0.0124060283 0.1897227667 -0.6983774426 0.6901262344
-0.3625631664 -0.5101185947 0.0013710160 0.0706607117 -0.9191642681 0.3874843377
-0.3625631664 -0.5088667232 0.0030539237 0.1146217141 -0.7970651894 0.5929156319
-0.3625631664 -0.5076148518 0.0047368315 0.1146217141 -0.7970651894 0.5929156319
-0.3625631664 -0.5063629803 0.0064197392 0.1146217141 -0.7970651894 0.5929156319
-0.3625631664 -0.5051111088 0.0081026470 0.1146217141 -0.7970651894 0.5929156319
-0.3625631664 -0.5164148420 -0.0135645925 0.0706607117 -0.9191642681 0.3874843377
-0.3625631664 -0.5148407802 -0.0098306904 0.0706607117 -0.9191642681 0.3874843377
-0.3625631664 -0.5132667183 -0.0060967883 0.0706607117 -0.9191642681 0.3874843377
-0.3625631664 -0.5116926565 -0.0023628862 0.0706607117 -0.9191642681 0.3874843377
-0.3625631664 -0.5101185947 0.0013710160 0.0706607117 -0.9191642681 0.3874843377
-0.3625631664 -0.5177228627 -0.0170462923 0.0463096896 -0.9351140129 0.3513078360
-0.3625631664 -0.5173958575 -0.0161758674 0.0463096896 -0.9351140129 0.3513078360
-0.3625631664 -0.5170688523 -0.0153054424 0.0463096896 -0.9351140129 0.3513078360
-0.3625631664 -0.5167418472 -0.0144350174 0.0463096896 -0.9351140129 0.3513078360
-0.3625631664 -0.5164148420 -0.0135645925 0.0706607117 -0.9191642681 0.3874843377
-0.3625631664 -0.5178874483 -0.0205796238 0.0461981572 -0.9989307716 -0.0017446537
-0.3625631664 -0.5178463019 -0.0196962910 0.0243973532 -0.9986194957 0.0465174380
-0.3625631664 -0.5178051555 -0.0188129581 0.0243973532 -0.9986194957 0.0465174380
-0.3625631664 -0.5177640091 -0.0179296252 0.0243973532 -0.9986194957 0.0465174380
-0.3625631664 -0.5177228627 -0.0170462923 0.0463096896 -0.9351140129 0.3513078360
-0.3625631664 -0.5178555794 -0.0388377737 0.0161957506 -0.9601314454 -0.2790793888
-0.3625631664 -0.5178635466 -0.0342732362 0.0461981572 -0.9989307716 -0.0017446537
-0.3625631664 -0.5178715139 -0.0297086987 0.0461981572 -0.9989307716 -0.0017446537
-0.3625631664 -0.5178794811 -0.0251441613 0.0461981572 -0.9989307716 -0.0017446537
-0.3625631664 -0.5178874483 -0.0205796238 0.0461981572 -0.9989307716 -0.0017446537
-0.3625631664 -0.5148241592 -0.0492669326 0.1148125363 -0.8512626669 -0.5120253445
-0.3625631664 -0.5155820143 -0.0466596429 0.0161957506 -0.9601314454 -0.2790793888
-0.3625631664 -0.5163398693 -0.0440523531 0.0161957506 -0.9601314454 -0.2790793888
-0.3625631664 -0.5170977244 -0.0414450634 0.0161957506 -0.9601314454 -0.2790793888
-0.3625631664 -0.5178555794 -0.0388377737 0.0161957506 -0.9601314454 -0.2790793888
-0.3625631664 -0.5046467623 -0.0661872257 0.0282340356 -0.8895328383 -0.4559979922
-0.3625631664 -0.5071911115 -0.0619571524 0.1148125363 -0.8512626669 -0.5120253445
-0.3625631664 -0.5097354608 -0.0577270792 0.1148125363 -0.8512626669 -0.5120253445
-0.3625631664 -0.5122798100 -0.0534970059 0.1148125363 -0.8512626669 -0.5120253445
-0.3625631664 -0.5148241592 -0.0492669326 0.1148125363 -0.8512626669 -0.5120253445
-0.3625631664 -0.5045272593 -0.0664203441 0.0879986142 -0.7726129551 -0.6287491276
-0.3625631664 -0.5045571350 -0.0663620645 0.0282340356 -0.8895328383 -0.4559979922
-0.3625631664 -0.5045870108 -0.0663037849 0.0282340356 -0.8895328383 -0.4559979922
-0.3625631664 -0.5046168865 -0.0662455053 0.0282340356 -0.8895328383 -0.4559979922
-0.3625631664 -0.5046467623 -0.0661872257 0.0282340356 -0.8895328383 -0.4559979922
-0.3625631664 -0.5044774684 -0.0664815278 0.0839301580 -0.6692442768 -0.7382870896
-0.3625631664 -0.5044899161 -0.0664662319 0.0879986142 -0.7726129551 -0.6287491276
-0.3625631664 -0.5045023639 -0.0664509360 0.0879986142 -0.7726129551 -0.6287491276
-0.3625631664 -0.5045148116 -0.0664356401 0.0879986142 -0.7726129551 -0.6287491276
-0.3625631664 -0.5045272593 -0.0664203441 0.0879986142 -0.7726129551 -0.6287491276
-0.3625631664 -0.5043803349 -0.0665695778 0.0513832760 -0.6241844847 -0.7795854591
-0.3625631664 -0.5044046183 -0.0665475653 0.0839301580 -0.6692442768 -0.7382870896
-0.3625631664 -0.5044289017 -0.0665255528 0.0839301580 -0.6692442768 -0.7382870896
-0.3625631664 -0.5044531851 -0.0665035403 0.0839301580 -0.6692442768 -0.7382870896
-0.3625631664 -0.5044774684 -0.0664815278 0.0839301580 -0.6692442768 -0.7382870896
-0.3625631664 -0.4917770033 -0.0766606142 0.0513832760 -0.6241844847 -0.7795854591
-0.3625631664 -0.4949278362 -0.0741378551 0.0513832760 -0.6241844847 -0.7795854591
-0.3625631664 -0.4980786691 -0.0716150960 0.0513832760 -0.6241844847 -0.7795854591
-0.3625631664 -0.5012295020 -0.0690923369 0.0513832760 -0.6241844847 -0.7795854591
-0.3625631664 -0.5043803349 -0.0665695778 0.0513832760 -0.6241844847 -0.7795854591
-0.3625631664 -0.4844032603 -0.0808338055 0.0807081683 -0.4909354745 -0.8674494518
-0.3625631664 -0.4862466960 -0.0797905077 0.0807081683 -0.4909354745 -0.8674494518
-0.3625631664 -0.4880901318 -0.0787472099 0.0807081683 -0.4909354745 -0.8674494518
-0.3625631664 -0.4899335675 -0.0777039120 0.0807081683 -0.4909354745 -0.8674494518
-0.3625631664 -0.4917770033 -0.0766606142 0.0513832760 -0.6241844847 -0.7795854591
-0.3625631664 -0.4782034906 -0.0840836473 0.0824250271 -0.4626898881 -0.8826801133
-0.3625631664 -0.4797534330 -0.0832711868 0.0824250271 -0.4626898881 -0.8826801133
-0.3625631664 -0.4813033754 -0.0824587264 0.0824250271 -0.4626898881 -0.8826801133
-0.3625631664 -0.4828533179 -0.0816462660 0.0824250271 -0.4626898881 -0.8826801133
-0.3625631664 -0.4844032603 -0.0808338055 0.0807081683 -0.4909354745 -0.8674494518
-0.3625631664 -0.4731021317 -0.0855515837 0.1587289356 -0.2730268860 -0.9488210814
-0.3625631664 -0.4743774714 -0.0851845996 0.1587289356 -0.2730268860 -0.9488210814
-0.3625631664 -0.4756528112 -0.0848176155 0.1587289356 -0.2730268860 -0.9488210814
-0.3625631664 -0.4769281509 -0.0844506314 0.1587289356 -0.2730268860 -0.9488210814
-0.3625631664 -0.4782034906 -0.0840836473 0.0824250271 -0.4626898881 -0.8826801133
-0.3625631664 -0.4646117774 -0.0882196498 0.1438513265 -0.2966746829 -0.9440820560
-0.3625631664 -0.4667343660 -0.0875526333 0.1438513265 -0.2966746829 -0.9440820560
-0.3625631664 -0.4688569546 -0.0868856168 0.1438513265 -0.2966746829 -0.9440820560
-0.3625631664 -0.4709795431 -0.0862186003 0.1438513265 -0.2966746829 -0.9440820560
-0.3625631664 -0.4731021317 -0.0855515837 0.1587289356 -0.2730268860 -0.9488210814
-0.3625631664 -0.2555013601 0.2424524874 0.0094058724 0.7703580690 -0.6375421360
-0.3625631664 -0.2562797740 0.2415119098 0.0094058724 0.7703580690 -0.6375421360
-0.3625631664 -0.2570581879 0.2405713321 0.0094058724 0.7703580690 -0.6375421360
-0.3625631664 -0.2578366018 0.2396307544 0.0094058724 0.7703580690 -0.6375421360
-0.3625631664 -0.2586150156 0.2386901767 -0.0217832463 0.7286989839 -0.6844876047
-0.3625631664 -0.2511723306 0.2614686017 0.1278446886 0.9724176513 -0.1950888183
-0.3625631664 -0.2522545880 0.2567145731 0.0941151630 0.9707251529 -0.2209864559
-0.3625631664 -0.2533368453 0.2519605446 0.0941151630 0.9707251529 -0.2209864559
-0.3625631664 -0.2544191027 0.2472065160 0.0941151630 0.9707251529 -0.2209864559
-0.3625631664 -0.2555013601 0.2424524874 0.0094058724 0.7703580690 -0.6375421360
-0.3625631664 -0.2509076648 0.2627878232 0.1278446886 0.9724176513 -0.1950888183
-0.3625631664 -0.2509738312 0.2624580178 0.1278446886 0.9724176513 -0.1950888183
-0.3625631664 -0.2510399977 0.2621282125 0.1278446886 0.9724176513 -0.1950888183
-0.3625631664 -0.2511061642 0.2617984071 0.1278446886 0.9724176513 -0.1950888183
-0.3625631664 -0.2511723306 0.2614686017 0.1278446886 0.9724176513 -0.1950888183
-0.3625631664 -0.2510696921 0.2632194064 0.3363187924 0.8816631390 0.3309981558
-0.3625631664 -0.2510291852 0.2631115106 0.3363187924 0.8816631390 0.3309981558
-0.3625631664 -0.2509886784 0.2630036148 0.3363187924 0.8816631390 0.3309981558
-0.3625631664 -0.2509481716 0.2628957190 0.3363187924 0.8816631390 0.3309981558
-0.3625631664 -0.2509076648 0.2627878232 0.1278446886 0.9724176513 -0.1950888183
-0.3625631664 -0.2537594300 0.2740699906 0.3309187659 0.9159368729 0.2270515694
-0.3625631664 -0.2530869955 0.2713573446 0.3309187659 0.9159368729 0.2270515694
-0.3625631664 -0.2524145610 0.2686446985 0.3309187659 0.9159368729 0.2270515694
-0.3625631664 -0.2517421265 0.2659320525 0.3309187659 0.9159368729 0.2270515694
-0.3625631664 -0.2510696921 0.2632194064 0.3363187924 0.8816631390 0.3309981558
-0.3625631664 -0.2650618308 0.2843693302 0.5594820067 0.6766789666 0.4786287291
-0.3625631664 -0.2622362306 0.2817944953 0.4455907385 0.6029845431 0.6617087989
-0.3625631664 -0.2594106304 0.2792196604 0.4455907385 0.6029845431 0.6617087989
-0.3625631664 -0.2565850302 0.2766448255 0.4455907385 0.6029845431 0.6617087989
-0.3625631664 -0.2537594300 0.2740699906 0.3309187659 0.9159368729 0.2270515694
-0.3625631664 -0.2660921535 0.2858259853 0.5608660000 0.4332900533 0.7054708071
-0.3625631664 -0.2658345728 0.2854618216 0.5594820067 0.6766789666 0.4786287291
-0.3625631664 -0.2655769921 0.2850976578 0.5594820067 0.6766789666 0.4786287291
-0.3625631664 -0.2653194115 0.2847334940 0.5594820067 0.6766789666 0.4786287291
-0.3625631664 -0.2650618308 0.2843693302 0.5594820067 0.6766789666 0.4786287291
-0.3625631664 -0.2668957913 0.2863195679 0.6019949754 0.1566014734 0.7829929937
-0.3625631664 -0.2666948818 0.2861961723 0.5608660000 0.4332900533 0.7054708071
-0.3625631664 -0.2664939724 0.2860727766 0.5608660000 0.4332900533 0.7054708071
-0.3625631664 -0.2662930629 0.2859493810 0.5608660000 0.4332900533 0.7054708071
-0.3625631664 -0.2660921535 0.2858259853 0.5608660000 0.4332900533 0.7054708071
-0.3625631664 -0.2679131048 0.2865230345 0.5237360596 0.3330743679 0.7840676026
-0.3625631664 -0.2676587764 0.2864721678 0.6019949754 0.1566014734 0.7829929937
-0.3625631664 -0.2674044480 0.2864213012 0.6019949754 0.1566014734 0.7829929937
-0.3625631664 -0.2671501196 0.2863704345 0.6019949754 0.1566014734 0.7829929937
-0.3625631664 -0.2668957913 0.2863195679 0.6019949754 0.1566014734 0.7829929937
-0.3625631664 -0.2773907066 0.2905491457 0.5838362883 -0.0147602708 0.8117372252
-0.3625631664 -0.2750213061 0.2895426179 0.5237360596 0.3330743679 0.7840676026
-0.3625631664 -0.2726519057 0.2885360901 0.5237360596 0.3330743679 0.7840676026
-0.3625631664 -0.2702825053 0.2875295623 0.5237360596 0.3330743679 0.7840676026
-0.3625631664 -0.2679131048 0.2865230345 0.5237360596 0.3330743679 0.7840676026
-0.3625631664 -0.2858627518 0.2903951018 0.5529429973 -0.1862187848 0.8121432176
-0.3625631664 -0.2837447405 0.2904336128 0.5838362883 -0.0147602708 0.8117372252
-0.3625631664 -0.2816267292 0.2904721238 0.5838362883 -0.0147602708 0.8117372252
-0.3625631664 -0.2795087179 0.2905106348 0.5838362883 -0.0147602708 0.8117372252
-0.3625631664 -0.2773907066 0.2905491457 0.5838362883 -0.0147602708 0.8117372252
-0.3625631664 -0.2928224464 0.2887992965 0.5529429973 -0.1862187848 0.8121432176
-0.3625631664 -0.2910825227 0.2891982478 0.5529429973 -0.1862187848 0.8121432176
-0.3625631664 -0.2893425991 0.2895971992 0.5529429973 -0.1862187848 0.8121432176
-0.3625631664 -0.2876026754 0.2899961505 0.5529429973 -0.1862187848 0.8121432176
-0.3625631664 -0.2858627518 0.2903951018 0.5529429973 -0.1862187848 0.8121432176
-0.3625631664 -0.2994757226 0.2868604748 0.5588500226 -0.2320063170 0.7961530764
-0.3625631664 -0.2978124035 0.2873451802 0.5588500226 -0.2320063170 0.7961530764
-0.3625631664 -0.2961490845 0.2878298857 0.5588500226 -0.2320063170 0.7961530764
-0.3625631664 -0.2944857654 0.2883145911 0.5588500226 -0.2320063170 0.7961530764
-0.3625631664 -0.2928224464 0.2887992965 0.5529429973 -0.1862187848 0.8121432176
-0.3625631664 -0.3028252597 0.2837048315 0.4829358764 -0.6004599147 0.6373545561
-0.3625631664 -0.3019878755 0.2844937423 0.4829358764 -0.6004599147 0.6373545561
-0.3625631664 -0.3011504912 0.2852826532 0.4829358764 -0.6004599147 0.6373545561
-0.3625631664 -0.3003131069 0.2860715640 0.4829358764 -0.6004599147 0.6373545561
-0.3625631664 -0.2994757226 0.2868604748 0.5588500226 -0.2320063170 0.7961530764
-0.3625631664 -0.3101189268 0.2749990893 0.5170931173 -0.7157947433 0.4693107643
-0.3625631664 -0.3082955101 0.2771755248 0.4729982447 -0.6753658187 0.5658212362
-0.3625631664 -0.3064720933 0.2793519604 0.4729982447 -0.6753658187 0.5658212362
-0.3625631664 -0.3046486765 0.2815283959 0.4729982447 -0.6753658187 0.5658212362
-0.3625631664 -0.3028252597 0.2837048315 0.4829358764 -0.6004599147 0.6373545561
-0.3625631664 -0.3110504876 0.2735782690 0.4941163033 -0.8036012597 0.3317741613
-0.3625631664 -0.3108175974 0.2739334740 0.5170931173 -0.7157947433 0.4693107643
-0.3625631664 -0.3105847072 0.2742886791 0.5170931173 -0.7157947433 0.4693107643
-0.3625631664 -0.3103518170 0.2746438842 0.5170931173 -0.7157947433 0.4693107643
-0.3625631664 -0.3101189268 0.2749990893 0.5170931173 -0.7157947433 0.4693107643
-0.3625631664 -0.3120512852 0.2711541990 0.4941163033 -0.8036012597 0.3317741613
-0.3625631664 -0.3118010858 0.2717602165 0.4941163033 -0.8036012597 0.3317741613
-0.3625631664 -0.3115508864 0.2723662340 0.4941163033 -0.8036012597 0.3317741613
-0.3625631664 -0.3113006870 0.2729722515 0.4941163033 -0.8036012597 0.3317741613
-0.3625631664 -0.3110504876 0.2735782690 0.4941163033 -0.8036012597 0.3317741613
-0.3625631664 -0.3145209915 0.2619280409 0.2603037898 -0.9572981863 -0.1257860072
-0.3625631664 -0.3139035649 0.2642345805 0.3689360719 -0.8978435240 0.2403397205
-0.3625631664 -0.3132861383 0.2665411200 0.3689360719 -0.8978435240 0.2403397205
-0.3625631664 -0.3126687118 0.2688476595 0.3689360719 -0.8978435240 0.2403397205
-0.3625631664 -0.3120512852 0.2711541990 0.4941163033 -0.8036012597 0.3317741613
-0.3625631664 -0.3139324002 0.2574485384 0.2740076743 -0.9275243216 -0.2542015486
-0.3625631664 -0.3140795481 0.2585684140 0.2603037898 -0.9572981863 -0.1257860072
-0.3625631664 -0.3142266959 0.2596882897 0.2603037898 -0.9572981863 -0.1257860072
-0.3625631664 -0.3143738437 0.2608081653 0.2603037898 -0.9572981863 -0.1257860072
-0.3625631664 -0.3145209915 0.2619280409 0.2603037898 -0.9572981863 -0.1257860072
-0.3625631664 -0.3107346508 0.2457806779 0.2740076743 -0.9275243216 -0.2542015486
-0.3625631664 -0.3115340882 0.2486976430 0.2740076743 -0.9275243216 -0.2542015486
-0.3625631664 -0.3123335255 0.2516146081 0.2740076743 -0.9275243216 -0.2542015486
-0.3625631664 -0.3131329629 0.2545315733 0.2740076743 -0.9275243216 -0.2542015486
-0.3625631664 -0.3139324002 0.2574485384 0.2740076743 -0.9275243216 -0.2542015486
-0.3625631664 -0.3044212899 0.2371043739 0.1701231153 -0.6758471575 -0.7171392789
-0.3625631664 -0.3059996301 0.2392734499 0.1073558696 -0.8039154726 -0.5849740424
-0.3625631664 -0.3075779703 0.2414425259 0.1073558696 -0.8039154726 -0.5849740424
-0.3625631664 -0.3091563106 0.2436116019 0.1073558696 -0.8039154726 -0.5849740424
-0.3625631664 -0.3107346508 0.2457806779 0.2740076743 -0.9275243216 -0.2542015486
-0.3625631664 -0.2997145107 0.2326686007 0.1701231153 -0.6758471575 -0.7171392789
-0.3625631664 -0.3008912055 0.2337775440 0.1701231153 -0.6758471575 -0.7171392789
-0.3625631664 -0.3020679003 0.2348864873 0.1701231153 -0.6758471575 -0.7171392789
-0.3625631664 -0.3032445951 0.2359954306 0.1701231153 -0.6758471575 -0.7171392789
-0.3625631664 -0.3044212899 0.2371043739 0.1701231153 -0.6758471575 -0.7171392789
-0.3625631664 -0.2883853869 0.2282674299 0.0065460893 -0.3621097526 -0.9321124802
-0.3625631664 -0.2912176678 0.2293677226 0.0065460893 -0.3621097526 -0.9321124802
-0.3625631664 -0.2940499488 0.2304680153 0.0065460893 -0.3621097526 -0.9321124802
-0.3625631664 -0.2968822297 0.2315683080 0.0065460893 -0.3621097526 -0.9321124802
-0.3625631664 -0.2997145107 0.2326686007 0.1701231153 -0.6758471575 -0.7171392789
-0.3625631664 -0.2852432818 0.2274091736 -0.1038793133 0.0579498205 -0.9929002501
-0.3625631664 -0.2860288081 0.2276237377 0.0158867369 -0.2634606967 -0.9645393060
-0.3625631664 -0.2868143344 0.2278383018 0.0158867369 -0.2634606967 -0.9645393060
-0.3625631664 -0.2875998606 0.2280528658 0.0158867369 -0.2634606967 -0.9645393060
-0.3625631664 -0.2883853869 0.2282674299 0.0065460893 -0.3621097526 -0.9321124802
-0.3625631664 -0.2699644180 0.2283009145 -0.1038793133 0.0579498205 -0.9929002501
-0.3625631664 -0.2737841339 0.2280779793 -0.1038793133 0.0579498205 -0.9929002501
-0.3625631664 -0.2776038499 0.2278550441 -0.1038793133 0.0579498205 -0.9929002501
-0.3625631664 -0.2814235659 0.2276321089 -0.1038793133 0.0579498205 -0.9929002501
-0.3625631664 -0.2852432818 0.2274091736 -0.1038793133 0.0579498205 -0.9929002501
-0.3625631664 -0.2637404371 0.2332337056 0.0135123555 0.6210700061 -0.7836386053
-0.3625631664 -0.2652964323 0.2320005078 0.0135123555 0.6210700061 -0.7836386053
-0.3625631664 -0.2668524275 0.2307673100 0.0135123555 0.6210700061 -0.7836386053
-0.3625631664 -0.2684084228 0.2295341123 0.0135123555 0.6210700061 -0.7836386053
-0.3625631664 -0.2699644180 0.2283009145 -0.1038793133 0.0579498205 -0.9929002501
-0.3625631664 -0.2586150156 0.2386901767 -0.0217832463 0.7286989839 -0.6844876047
-0.3625631664 -0.2598963710 0.2373260589 -0.0217832463 0.7286989839 -0.6844876047
-0.3625631664 -0.2611777264 0.2359619411 -0.0217832463 0.7286989839 -0.6844876047
-0.3625631664 -0.2624590817 0.2345978233 -0.0217832463 0.7286989839 -0.6844876047
-0.3625631664 -0.2637404371 0.2332337056 0.0135123555 0.6210700061 -0.7836386053
-0.3625631664 -0.1096033301 0.2934154189 0.8034454561 0.0554644466 -0.5927892494
-0.3625631664 -0.1101525791 0.2933174267 0.7748185615 0.1110352046 -0.6223563128
-0.3625631664 -0.1107018281 0.2932194345 0.7748185615 0.1110352046 -0.6223563128
-0.3625631664 -0.1112510771 0.2931214423 0.7748185615 0.1110352046 -0.6223563128
-0.3625631664 -0.1118003261 0.2930234501 0.7740768162 -0.1599710229 -0.6125474303
-0.3625631664 -0.0824654126 0.2959545783 0.8034454561 0.0554644466 -0.5927892494
-0.3625631664 -0.0892498920 0.2953197884 0.8034454561 0.0554644466 -0.5927892494
-0.3625631664 -0.0960343714 0.2946849986 0.8034454561 0.0554644466 -0.5927892494
-0.3625631664 -0.1028188508 0.2940502087 0.8034454561 0.0554644466 -0.5927892494
-0.3625631664 -0.1096033301 0.2934154189 0.8034454561 0.0554644466 -0.5927892494
-0.3625631664 -0.0643638783 0.3032239114 0.8035341266 0.2749996057 -0.5279281430
-0.3625631664 -0.0688892619 0.3014065781 0.7911065935 0.2279474577 -0.5676181060
-0.3625631664 -0.0734146455 0.2995892448 0.7911065935 0.2279474577 -0.5676181060
-0.3625631664 -0.0779400291 0.2977719116 0.7911065935 0.2279474577 -0.5676181060
-0.3625631664 -0.0824654126 0.2959545783 0.8034454561 0.0554644466 -0.5927892494
-0.3625631664 -0.0556150888 0.3077811969 0.8085857212 0.2543648827 -0.5305540857
-0.3625631664 -0.0578022862 0.3066418756 0.8035341266 0.2749996057 -0.5279281430
-0.3625631664 -0.0599894836 0.3055025542 0.8035341266 0.2749996057 -0.5279281430
-0.3625631664 -0.0621766810 0.3043632328 0.8035341266 0.2749996057 -0.5279281430
-0.3625631664 -0.0643638783 0.3032239114 0.8035341266 0.2749996057 -0.5279281430
-0.3625631664 -0.0455656722 0.3125992121 0.8085857212 0.2543648827 -0.5305540857
-0.3625631664 -0.0480780263 0.3113947083 0.8085857212 0.2543648827 -0.5305540857
-0.3625631664 -0.0505903805 0.3101902045 0.8085857212 0.2543648827 -0.5305540857
-0.3625631664 -0.0531027347 0.3089857007 0.8085857212 0.2543648827 -0.5305540857
-0.3625631664 -0.0556150888 0.3077811969 0.8085857212 0.2543648827 -0.5305540857
-0.3625631664 -0.0408041657 0.3155509019 0.8369461434 0.2883544551 -0.4651589634
-0.3625631664 -0.0419945424 0.3148129795 0.8369461434 0.2883544551 -0.4651589634
-0.3625631664 -0.0431849190 0.3140750570 0.8369461434 0.2883544551 -0.4651589634
