ply
format ascii 1.0
comment n_points_per_edge=5 
element vertex 596
property float x
property float y
property float z
property float nx
property float ny
property float nz
element face 0
property list uchar int vertex_index
end_header
0.1454664253 0.0222769182 0.1205843387 -0.6439879704 -0.1758719290 0.7445458741
0.1453262688 0.0225875778 0.1205843387 -0.5920065482 -0.2670912059 0.7603884104
0.1451861123 0.0228982373 0.1205843387 -0.5920065482 -0.2670912059 0.7603884104
0.1450459558 0.0232088969 0.1205843387 -0.5920065482 -0.2670912059 0.7603884104
0.1449057994 0.0235195565 0.1205843387 -0.5920065482 -0.2670912059 0.7603884104
0.1458252810 0.0209628933 0.1205843387 -0.7075133526 0.0339776210 0.7058826936
0.1457355671 0.0212913995 0.1205843387 -0.6439879704 -0.1758719290 0.7445458741
0.1456458532 0.0216199058 0.1205843387 -0.6439879704 -0.1758719290 0.7445458741
0.1455561392 0.0219484120 0.1205843387 -0.6439879704 -0.1758719290 0.7445458741
0.1454664253 0.0222769182 0.1205843387 -0.6439879704 -0.1758719290 0.7445458741
0.1456307595 0.0169123431 0.1205843387 -0.5532108482 0.5171472030 0.6530823286
0.1456793899 0.0179249806 0.1205843387 -0.7075133526 0.0339776210 0.7058826936
0.1457280202 0.0189376182 0.1205843387 -0.7075133526 0.0339776210 0.7058826936
0.1457766506 0.0199502557 0.1205843387 -0.7075133526 0.0339776210 0.7058826936
0.1458252810 0.0209628933 0.1205843387 -0.7075133526 0.0339776210 0.7058826936
0.1239491509 -0.0062812476 0.1205843387 -0.5532108482 0.5171472030 0.6530823286
0.1293695530 -0.0004828499 0.1205843387 -0.5532108482 0.5171472030 0.6530823286
0.1347899552 0.0053155477 0.1205843387 -0.5532108482 0.5171472030 0.6530823286
0.1402103573 0.0111139454 0.1205843387 -0.5532108482 0.5171472030 0.6530823286
0.1456307595 0.0169123431 0.1205843387 -0.5532108482 0.5171472030 0.6530823286
0.0928494297 -0.0407413779 0.1205843387 -0.5195348963 0.4688720455 0.7143126042
0.1006243600 -0.0321263454 0.1205843387 -0.5195348963 0.4688720455 0.7143126042
0.1083992903 -0.0235113128 0.1205843387 -0.5195348963 0.4688720455 0.7143126042
0.1161742206 -0.0148962802 0.1205843387 -0.5195348963 0.4688720455 0.7143126042
0.1239491509 -0.0062812476 0.1205843387 -0.5532108482 0.5171472030 0.6530823286
0.1590508237 -0.1000915700 0.1205843387 -0.4720465312 -0.5265488944 0.7070490324
0.1425004752 -0.0852540220 0.1205843387 -0.4720126564 -0.5265003634 0.7071077850
0.1259501267 -0.0704164740 0.1205843387 -0.4720126564 -0.5265003634 0.7071077850
0.1093997782 -0.0555789260 0.1205843387 -0.4720126564 -0.5265003634 0.7071077850
0.0928494297 -0.0407413779 0.1205843387 -0.5195348963 0.4688720455 0.7143126042
0.2063913956 -0.1425319668 0.1205843387 0.3056394412 -0.6377843706 0.7069763989
0.1945562526 -0.1319218676 0.1205843387 -0.4720465312 -0.5265488944 0.7070490324
0.1827211096 -0.1213117684 0.1205843387 -0.4720465312 -0.5265488944 0.7070490324
0.1708859666 -0.1107016692 0.1205843387 -0.4720465312 -0.5265488944 0.7070490324
0.1590508237 -0.1000915700 0.1205843387 -0.4720465312 -0.5265488944 0.7070490324
0.2358446917 -0.1284173476 0.1205843387 0.3056034818 -0.6376110320 0.7071482756
0.2284813677 -0.1319460024 0.1205843387 0.3056394412 -0.6377843706 0.7069763989
0.2211180437 -0.1354746572 0.1205843387 0.3056394412 -0.6377843706 0.7069763989
0.2137547196 -0.1390033120 0.1205843387 0.3056394412 -0.6377843706 0.7069763989
0.2063913956 -0.1425319668 0.1205843387 0.3056394412 -0.6377843706 0.7069763989
0.2785412619 -0.1079531114 0.1205843387 0.1893011805 -0.6812570552 0.7071448846
0.2678671194 -0.1130691704 0.1205843387 0.3056034818 -0.6376110320 0.7071482756
0.2571929768 -0.1181852295 0.1205843387 0.3056034818 -0.6376110320 0.7071482756
0.2465188343 -0.1233012886 0.1205843387 0.3056034818 -0.6376110320 0.7071482756
0.2358446917 -0.1284173476 0.1205843387 0.3056034818 -0.6376110320 0.7071482756
0.3168874578 -0.0972978374 0.1205843387 0.1893011805 -0.6812570552 0.7071448846
0.3073009088 -0.0999616559 0.1205843387 0.1893011805 -0.6812570552 0.7071448846
0.2977143599 -0.1026254744 0.1205843387 0.1893011805 -0.6812570552 0.7071448846
0.2881278109 -0.1052892929 0.1205843387 0.1893011805 -0.6812570552 0.7071448846
0.2785412619 -0.1079531114 0.1205843387 0.1893011805 -0.6812570552 0.7071448846
0.3486540269 -0.0884699564 0.1205843387 0.1893356342 -0.6813122966 0.7070824366
0.3407123847 -0.0906769266 0.1205843387 0.1893356342 -0.6813122966 0.7070824366
0.3327707424 -0.0928838969 0.1205843387 0.1893356342 -0.6813122966 0.7070824366
0.3248291001 -0.0950908671 0.1205843387 0.1893356342 -0.6813122966 0.7070824366
0.3168874578 -0.0972978374 0.1205843387 0.1893011805 -0.6812570552 0.7071448846
0.2730243352 -0.0324010027 0.1205843387 0.4197326591 0.5661645861 0.7094238200
0.2919317582 -0.0464182411 0.1205843387 0.4197326591 0.5661645861 0.7094238200
0.3108391811 -0.0604354795 0.1205843387 0.4197326591 0.5661645861 0.7094238200
0.3297466040 -0.0744527179 0.1205843387 0.4197326591 0.5661645861 0.7094238200
0.3486540269 -0.0884699564 0.1205843387 0.1893356342 -0.6813122966 0.7070824366
0.1625863882 0.0491082279 0.1205843387 0.4355118792 0.5900808735 0.6798043584
0.1901958749 0.0287309202 0.1205843387 0.4355118792 0.5900808735 0.6798043584
0.2178053617 0.0083536126 0.1205843387 0.4355118792 0.5900808735 0.6798043584
0.2454148485 -0.0120236951 0.1205843387 0.4355118792 0.5900808735 0.6798043584
0.2730243352 -0.0324010027 0.1205843387 0.4197326591 0.5661645861 0.7094238200
0.1618811115 0.0502747110 0.1205843387 0.6327589348 0.2575465379 0.7302642750
0.1620574307 0.0499830902 0.1205843387 0.5951375890 0.3598292355 0.7185639648
0.1622337498 0.0496914694 0.1205843387 0.5951375890 0.3598292355 0.7185639648
0.1624100690 0.0493998486 0.1205843387 0.5951375890 0.3598292355 0.7185639648
0.1625863882 0.0491082279 0.1205843387 0.4355118792 0.5900808735 0.6798043584
0.1613672999 0.0515370830 0.1205843387 0.6618192313 -0.0044370255 0.7496503304
0.1614957528 0.0512214900 0.1205843387 0.6327589348 0.2575465379 0.7302642750
0.1616242057 0.0509058970 0.1205843387 0.6327589348 0.2575465379 0.7302642750
0.1617526586 0.0505903040 0.1205843387 0.6327589348 0.2575465379 0.7302642750
0.1618811115 0.0502747110 0.1205843387 0.6327589348 0.2575465379 0.7302642750
0.1614032770 0.0569039500 0.1205843387 0.5411311300 -0.2280909827 0.8094143585
0.1613942827 0.0555622332 0.1205843387 0.6618192313 -0.0044370255 0.7496503304
0.1613852884 0.0542205165 0.1205843387 0.6618192313 -0.0044370255 0.7496503304
0.1613762942 0.0528787997 0.1205843387 0.6618192313 -0.0044370255 0.7496503304
0.1613672999 0.0515370830 0.1205843387 0.6618192313 -0.0044370255 0.7496503304
0.1619325008 0.0581594901 0.1205843387 0.4807358933 -0.2989941029 0.8243151869
0.1618001949 0.0578456051 0.1205843387 0.5411311300 -0.2280909827 0.8094143585
0.1616678889 0.0575317201 0.1205843387 0.5411311300 -0.2280909827 0.8094143585
0.1615355830 0.0572178350 0.1205843387 0.5411311300 -0.2280909827 0.8094143585
0.1614032770 0.0569039500 0.1205843387 0.5411311300 -0.2280909827 0.8094143585
0.1626521590 0.0593165824 0.1205843387 0.4807358933 -0.2989941029 0.8243151869
0.1624722445 0.0590273093 0.1205843387 0.4807358933 -0.2989941029 0.8243151869
0.1622923299 0.0587380363 0.1205843387 0.4807358933 -0.2989941029 0.8243151869
0.1621124154 0.0584487632 0.1205843387 0.4807358933 -0.2989941029 0.8243151869
0.1619325008 0.0581594901 0.1205843387 0.4807358933 -0.2989941029 0.8243151869
0.1760645222 0.0775280291 0.1205843387 0.4466811865 -0.3289717678 0.8320177244
0.1727114314 0.0729751674 0.1205843387 0.4466811865 -0.3289717678 0.8320177244
0.1693583406 0.0684223057 0.1205843387 0.4466811865 -0.3289717678 0.8320177244
0.1660052498 0.0638694441 0.1205843387 0.4466811865 -0.3289717678 0.8320177244
0.1626521590 0.0593165824 0.1205843387 0.4807358933 -0.2989941029 0.8243151869
0.1843093572 0.0918650151 0.1205843387 0.5865175172 -0.3953964258 0.7068655236
0.1822481484 0.0882807686 0.1205843387 0.6148739221 -0.3535983377 0.7049101187
0.1801869397 0.0846965221 0.1205843387 0.6148739221 -0.3535983377 0.7049101187
0.1781257309 0.0811122756 0.1205843387 0.6148739221 -0.3535983377 0.7049101187
0.1760645222 0.0775280291 0.1205843387 0.4466811865 -0.3289717678 0.8320177244
0.1853224266 0.0933677659 0.1205843387 0.5865175172 -0.3953964258 0.7068655236
0.1850691593 0.0929920782 0.1205843387 0.5865175172 -0.3953964258 0.7068655236
0.1848158919 0.0926163905 0.1205843387 0.5865175172 -0.3953964258 0.7068655236
0.1845626245 0.0922407028 0.1205843387 0.5865175172 -0.3953964258 0.7068655236
0.1843093572 0.0918650151 0.1205843387 0.5865175172 -0.3953964258 0.7068655236
0.1872266871 0.0961903778 0.1205843387 0.6209147309 -0.3488086539 0.7019953134
0.1867506219 0.0954847249 0.1205843387 0.5864261590 -0.3956287646 0.7068113190
0.1862745568 0.0947790719 0.1205843387 0.5864261590 -0.3956287646 0.7068113190
0.1857984917 0.0940734189 0.1205843387 0.5864261590 -0.3956287646 0.7068113190
0.1853224266 0.0933677659 0.1205843387 0.5865175172 -0.3953964258 0.7068655236
0.1890786798 0.0994871224 0.1205843387 0.6433453121 -0.3309079572 0.6903671004
0.1886156816 0.0986629363 0.1205843387 0.6209147309 -0.3488086539 0.7019953134
0.1881526834 0.0978387501 0.1205843387 0.6209147309 -0.3488086539 0.7019953134
0.1876896852 0.0970145640 0.1205843387 0.6209147309 -0.3488086539 0.7019953134
0.1872266871 0.0961903778 0.1205843387 0.6209147309 -0.3488086539 0.7019953134
0.1903914970 0.1020394783 0.1205843387 0.6552274335 -0.3021321467 0.6923822472
0.1900632927 0.1014013893 0.1205843387 0.6433453121 -0.3309079572 0.6903671004
0.1897350884 0.1007633003 0.1205843387 0.6433453121 -0.3309079572 0.6903671004
0.1894068841 0.1001252114 0.1205843387 0.6433453121 -0.3309079572 0.6903671004
0.1890786798 0.0994871224 0.1205843387 0.6433453121 -0.3309079572 0.6903671004
0.1921569362 0.1058681477 0.1205843387 0.7047728465 -0.2333146983 0.6699697653
0.1917155764 0.1049109804 0.1205843387 0.6552274335 -0.3021321467 0.6923822472
0.1912742166 0.1039538130 0.1205843387 0.6552274335 -0.3021321467 0.6923822472
0.1908328568 0.1029966456 0.1205843387 0.6552274335 -0.3021321467 0.6923822472
0.1903914970 0.1020394783 0.1205843387 0.6552274335 -0.3021321467 0.6923822472
0.1925977547 0.1071997245 0.1205843387 0.6976735100 -0.2683358585 0.6642646615
0.1924875501 0.1068668303 0.1205843387 0.7047728465 -0.2333146983 0.6699697653
0.1923773454 0.1065339361 0.1205843387 0.7047728465 -0.2333146983 0.6699697653
0.1922671408 0.1062010419 0.1205843387 0.7047728465 -0.2333146983 0.6699697653
0.1921569362 0.1058681477 0.1205843387 0.7047728465 -0.2333146983 0.6699697653
0.1942308263 0.1114457264 0.1205843387 0.7216027004 -0.2121114471 0.6590131082
0.1938225584 0.1103842259 0.1205843387 0.6976735100 -0.2683358585 0.6642646615
0.1934142905 0.1093227255 0.1205843387 0.6976735100 -0.2683358585 0.6642646615
0.1930060226 0.1082612250 0.1205843387 0.6976735100 -0.2683358585 0.6642646615
0.1925977547 0.1071997245 0.1205843387 0.6976735100 -0.2683358585 0.6642646615
0.1943179653 0.1117421728 0.1205843387 0.7216027004 -0.2121114471 0.6590131082
0.1942961806 0.1116680612 0.1205843387 0.7216027004 -0.2121114471 0.6590131082
0.1942743958 0.1115939496 0.1205843387 0.7216027004 -0.2121114471 0.6590131082
0.1942526111 0.1115198380 0.1205843387 0.7216027004 -0.2121114471 0.6590131082
0.1942308263 0.1114457264 0.1205843387 0.7216027004 -0.2121114471 0.6590131082
0.1654812409 0.1329816781 0.1205843387 0.2155618946 0.2926583819 0.9316029954
0.1726904220 0.1276718018 0.1205843387 0.2155770857 0.2926875031 0.9315903314
0.1798996031 0.1223619254 0.1205843387 0.2155770857 0.2926875031 0.9315903314
0.1871087842 0.1170520491 0.1205843387 0.2155770857 0.2926875031 0.9315903314
0.1943179653 0.1117421728 0.1205843387 0.7216027004 -0.2121114471 0.6590131082
0.1636594199 0.1343235681 0.1205843387 -0.4165517673 0.6263713820 0.6588956799
0.1641148751 0.1339880956 0.1205843387 0.2155618946 0.2926583819 0.9316029954
0.1645703304 0.1336526231 0.1205843387 0.2155618946 0.2926583819 0.9316029954
0.1650257856 0.1333171506 0.1205843387 0.2155618946 0.2926583819 0.9316029954
0.1654812409 0.1329816781 0.1205843387 0.2155618946 0.2926583819 0.9316029954
0.1633530463 0.1341198223 0.1205843387 -0.4652744052 0.5586983066 0.6865682268
0.1634296397 0.1341707588 0.1205843387 -0.4165517673 0.6263713820 0.6588956799
0.1635062331 0.1342216952 0.1205843387 -0.4165517673 0.6263713820 0.6588956799
0.1635828265 0.1342726317 0.1205843387 -0.4165517673 0.6263713820 0.6588956799
0.1636594199 0.1343235681 0.1205843387 -0.4165517673 0.6263713820 0.6588956799
0.1632131252 0.1340032981 0.1205843387 -0.4652744052 0.5586983066 0.6865682268
0.1632481055 0.1340324292 0.1205843387 -0.4652744052 0.5586983066 0.6865682268
0.1632830858 0.1340615602 0.1205843387 -0.4652744052 0.5586983066 0.6865682268
0.1633180661 0.1340906913 0.1205843387 -0.4652744052 0.5586983066 0.6865682268
0.1633530463 0.1341198223 0.1205843387 -0.4652744052 0.5586983066 0.6865682268
0.1579367912 0.1298367798 0.1205843387 -0.4631860543 0.5865627114 0.6643815656
0.1592558747 0.1308784094 0.1205843387 -0.4631860543 0.5865627114 0.6643815656
0.1605749582 0.1319200390 0.1205843387 -0.4631860543 0.5865627114 0.6643815656
0.1618940417 0.1329616686 0.1205843387 -0.4631860543 0.5865627114 0.6643815656
0.1632131252 0.1340032981 0.1205843387 -0.4652744052 0.5586983066 0.6865682268
0.1545710928 0.1268039541 0.1205843387 -0.4829947363 0.5360066733 0.6923965128
0.1554125174 0.1275621606 0.1205843387 -0.4829947363 0.5360066733 0.6923965128
0.1562539420 0.1283203670 0.1205843387 -0.4829947363 0.5360066733 0.6923965128
0.1570953666 0.1290785734 0.1205843387 -0.4829947363 0.5360066733 0.6923965128
0.1579367912 0.1298367798 0.1205843387 -0.4631860543 0.5865627114 0.6643815656
0.1525117374 0.1244434350 0.1205843387 -0.5337082065 0.4656149423 0.7059449524
0.1530265762 0.1250335648 0.1205843387 -0.5337082065 0.4656149423 0.7059449524
0.1535414151 0.1256236946 0.1205843387 -0.5337082065 0.4656149423 0.7059449524
0.1540562540 0.1262138244 0.1205843387 -0.5337082065 0.4656149423 0.7059449524
0.1545710928 0.1268039541 0.1205843387 -0.4829947363 0.5360066733 0.6923965128
0.1497940933 0.1215446923 0.1205843387 -0.5295980822 0.4965117603 0.6877513673
0.1504735043 0.1222693780 0.1205843387 -0.5295980822 0.4965117603 0.6877513673
0.1511529153 0.1229940637 0.1205843387 -0.5295980822 0.4965117603 0.6877513673
0.1518323263 0.1237187494 0.1205843387 -0.5295980822 0.4965117603 0.6877513673
0.1525117374 0.1244434350 0.1205843387 -0.5337082065 0.4656149423 0.7059449524
0.1476462605 0.1188678477 0.1205843387 -0.5693476340 0.4193613487 0.7070921657
0.1481832187 0.1195370589 0.1205843387 -0.5517652744 0.4427214160 0.7067905134
0.1487201769 0.1202062700 0.1205843387 -0.5517652744 0.4427214160 0.7067905134
0.1492571351 0.1208754812 0.1205843387 -0.5517652744 0.4427214160 0.7067905134
0.1497940933 0.1215446923 0.1205843387 -0.5295980822 0.4965117603 0.6877513673
0.1342333693 0.1006577786 0.1205843387 -0.5693476340 0.4193613487 0.7070921657
0.1375865921 0.1052102959 0.1205843387 -0.5693476340 0.4193613487 0.7070921657
0.1409398149 0.1097628132 0.1205843387 -0.5693476340 0.4193613487 0.7070921657
0.1442930377 0.1143153304 0.1205843387 -0.5693476340 0.4193613487 0.7070921657
0.1476462605 0.1188678477 0.1205843387 -0.5693476340 0.4193613487 0.7070921657
0.1246562172 0.0882565194 0.1205843387 -0.5354266178 0.4134952947 0.7364373552
0.1270505052 0.0913568342 0.1205843387 -0.5354266178 0.4134952947 0.7364373552
0.1294447932 0.0944571490 0.1205843387 -0.5354266178 0.4134952947 0.7364373552
0.1318390813 0.0975574638 0.1205843387 -0.5354266178 0.4134952947 0.7364373552
0.1342333693 0.1006577786 0.1205843387 -0.5693476340 0.4193613487 0.7070921657
0.1237645473 0.0872260012 0.1205843387 -0.4480288928 0.5318243245 0.7186327289
0.1239874648 0.0874836308 0.1205843387 -0.5165641423 0.4469638445 0.7303319853
0.1242103823 0.0877412603 0.1205843387 -0.5165641423 0.4469638445 0.7303319853
0.1244332997 0.0879988898 0.1205843387 -0.5165641423 0.4469638445 0.7303319853
0.1246562172 0.0882565194 0.1205843387 -0.5354266178 0.4134952947 0.7364373552
0.1227222877 0.0863479603 0.1205843387 -0.4480288928 0.5318243245 0.7186327289
0.1229828526 0.0865674706 0.1205843387 -0.4480288928 0.5318243245 0.7186327289
0.1232434175 0.0867869808 0.1205843387 -0.4480288928 0.5318243245 0.7186327289
0.1235039824 0.0870064910 0.1205843387 -0.4480288928 0.5318243245 0.7186327289
0.1237645473 0.0872260012 0.1205843387 -0.4480288928 0.5318243245 0.7186327289
0.1215558393 0.0856428342 0.1205843387 -0.2665580497 0.6561030165 0.7060280716
0.1218474514 0.0858191158 0.1205843387 -0.3641123338 0.6023290643 0.7103674449
0.1221390635 0.0859953973 0.1205843387 -0.3641123338 0.6023290643 0.7103674449
0.1224306756 0.0861716788 0.1205843387 -0.3641123338 0.6023290643 0.7103674449
0.1227222877 0.0863479603 0.1205843387 -0.4480288928 0.5318243245 0.7186327289
0.1202940000 0.0851301805 0.1205843387 -0.2665580497 0.6561030165 0.7060280716
0.1206094598 0.0852583440 0.1205843387 -0.2665580497 0.6561030165 0.7060280716
0.1209249196 0.0853865074 0.1205843387 -0.2665580497 0.6561030165 0.7060280716
0.1212403795 0.0855146708 0.1205843387 -0.2665580497 0.6561030165 0.7060280716
0.1215558393 0.0856428342 0.1205843387 -0.2665580497 0.6561030165 0.7060280716
0.1162498103 0.0848380097 0.1205843387 0.1638191677 0.6632113530 0.7302834939
0.1172608578 0.0849110524 0.1205843387 -0.0516614524 0.7150897252 0.6971210650
0.1182719052 0.0849840951 0.1205843387 -0.0516614524 0.7150897252 0.6971210650
0.1192829526 0.0850571378 0.1205843387 -0.0516614524 0.7150897252 0.6971210650
0.1202940000 0.0851301805 0.1205843387 -0.2665580497 0.6561030165 0.7060280716
0.1149263919 0.0851649071 0.1205843387 0.1638191677 0.6632113530 0.7302834939
0.1152572465 0.0850831828 0.1205843387 0.1638191677 0.6632113530 0.7302834939
0.1155881011 0.0850014584 0.1205843387 0.1638191677 0.6632113530 0.7302834939
0.1159189557 0.0849197341 0.1205843387 0.1638191677 0.6632113530 0.7302834939
0.1162498103 0.0848380097 0.1205843387 0.1638191677 0.6632113530 0.7302834939
0.1136701686 0.0856943277 0.1205843387 0.3430691426 0.5514974903 0.7603644400
0.1139842244 0.0855619726 0.1205843387 0.2592944635 0.6152617190 0.7444591314
0.1142982802 0.0854296174 0.1205843387 0.2592944635 0.6152617190 0.7444591314
0.1146123361 0.0852972623 0.1205843387 0.2592944635 0.6152617190 0.7444591314
0.1149263919 0.0851649071 0.1205843387 0.1638191677 0.6632113530 0.7302834939
0.1125129721 0.0864141828 0.1205843387 0.3759985546 0.5166917042 0.7691909839
0.1128022712 0.0862342190 0.1205843387 0.3430691426 0.5514974903 0.7603644400
0.1130915703 0.0860542553 0.1205843387 0.3430691426 0.5514974903 0.7603644400
0.1133808695 0.0858742915 0.1205843387 0.3430691426 0.5514974903 0.7603644400
0.1136701686 0.0856943277 0.1205843387 0.3430691426 0.5514974903 0.7603644400
0.0048802747 0.1647389142 0.1205843387 0.3759985546 0.5166917042 0.7691909839
0.0317884490 0.1451577313 0.1205843387 0.3759985546 0.5166917042 0.7691909839
0.0586966234 0.1255765485 0.1205843387 0.3759985546 0.5166917042 0.7691909839
0.0856047977 0.1059953656 0.1205843387 0.3759985546 0.5166917042 0.7691909839
0.1125129721 0.0864141828 0.1205843387 0.3759985546 0.5166917042 0.7691909839
-0.0179440270 0.1815504609 0.1205843387 -0.5311439893 0.4667623005 0.7071202284
-0.0122379516 0.1773475742 0.1205843387 0.4193144457 0.5692848650 0.7071705156
-0.0065318761 0.1731446876 0.1205843387 0.4193144457 0.5692848650 0.7071705156
-0.0008258007 0.1689418009 0.1205843387 0.4193144457 0.5692848650 0.7071705156
0.0048802747 0.1647389142 0.1205843387 0.3759985546 0.5166917042 0.7691909839
-0.0206489899 0.1784723917 0.1205843387 -0.5311439893 0.4667623005 0.7071202284
-0.0199727492 0.1792419090 0.1205843387 -0.5311439893 0.4667623005 0.7071202284
-0.0192965084 0.1800114263 0.1205843387 -0.5311439893 0.4667623005 0.7071202284
-0.0186202677 0.1807809436 0.1205843387 -0.5311439893 0.4667623005 0.7071202284
-0.0179440270 0.1815504609 0.1205843387 -0.5311439893 0.4667623005 0.7071202284
-0.0665434819 0.1262634854 0.1205843387 -0.5310806755 0.4668490189 0.7071105357
-0.0550698589 0.1393157120 0.1205843387 -0.5310806755 0.4668490189 0.7071105357
-0.0435962359 0.1523679386 0.1205843387 -0.5310806755 0.4668490189 0.7071105357
-0.0321226129 0.1654201651 0.1205843387 -0.5310806755 0.4668490189 0.7071105357
-0.0206489899 0.1784723917 0.1205843387 -0.5311439893 0.4667623005 0.7071202284
-0.0783973602 0.1127789086 0.1205843387 -0.4719977533 -0.5265076523 0.7071123057
-0.0754338906 0.1161500528 0.1205843387 -0.5311180074 0.4668895933 0.7070557050
-0.0724704211 0.1195211970 0.1205843387 -0.5311180074 0.4668895933 0.7070557050
-0.0695069515 0.1228923412 0.1205843387 -0.5311180074 0.4668895933 0.7070557050
-0.0665434819 0.1262634854 0.1205843387 -0.5310806755 0.4668490189 0.7071105357
-0.0755928673 0.1102647628 0.1205843387 -0.4720054139 -0.5265009202 0.7071122049
-0.0762939905 0.1108932992 0.1205843387 -0.4719977533 -0.5265076523 0.7071123057
-0.0769951137 0.1115218357 0.1205843387 -0.4719977533 -0.5265076523 0.7071123057
-0.0776962370 0.1121503721 0.1205843387 -0.4719977533 -0.5265076523 0.7071123057
-0.0783973602 0.1127789086 0.1205843387 -0.4719977533 -0.5265076523 0.7071123057
-0.0145014185 0.0554965901 0.1205843387 -0.4720247998 -0.5265298439 0.7070777269
-0.0297742807 0.0691886333 0.1205843387 -0.4720054139 -0.5265009202 0.7071122049
-0.0450471429 0.0828806764 0.1205843387 -0.4720054139 -0.5265009202 0.7071122049
-0.0603200051 0.0965727196 0.1205843387 -0.4720054139 -0.5265009202 0.7071122049
-0.0755928673 0.1102647628 0.1205843387 -0.4720054139 -0.5265009202 0.7071122049
0.0275067774 0.0178369780 0.1205843387 -0.4720247998 -0.5265298439 0.7070777269
0.0170047285 0.0272518810 0.1205843387 -0.4720247998 -0.5265298439 0.7070777269
0.0065026795 0.0366667840 0.1205843387 -0.4720247998 -0.5265298439 0.7070777269
-0.0039993695 0.0460816870 0.1205843387 -0.4720247998 -0.5265298439 0.7070777269
-0.0145014185 0.0554965901 0.1205843387 -0.4720247998 -0.5265298439 0.7070777269
0.0503549559 0.0416182841 0.1205843387 0.5428538941 -0.5461878533 0.6379564864
0.0446429113 0.0356729575 0.1205843387 0.5072535398 -0.4873500369 0.7107628212
0.0389308667 0.0297276310 0.1205843387 0.5072535398 -0.4873500369 0.7107628212
0.0332188221 0.0237823045 0.1205843387 0.5072535398 -0.4873500369 0.7107628212
0.0275067774 0.0178369780 0.1205843387 -0.4720247998 -0.5265298439 0.7070777269
0.0850896559 0.0761409661 0.1205843387 0.5428538941 -0.5461878533 0.6379564864
0.0764059809 0.0675102956 0.1205843387 0.5428538941 -0.5461878533 0.6379564864
0.0677223059 0.0588796251 0.1205843387 0.5428538941 -0.5461878533 0.6379564864
0.0590386309 0.0502489546 0.1205843387 0.5428538941 -0.5461878533 0.6379564864
0.0503549559 0.0416182841 0.1205843387 0.5428538941 -0.5461878533 0.6379564864
0.0891402061 0.0759476719 0.1205843387 -0.0341739225 -0.7161381247 0.6971214595
0.0881275685 0.0759959955 0.1205843387 -0.0341739225 -0.7161381247 0.6971214595
0.0871149310 0.0760443190 0.1205843387 -0.0341739225 -0.7161381247 0.6971214595
0.0861022934 0.0760926425 0.1205843387 -0.0341739225 -0.7161381247 0.6971214595
0.0850896559 0.0761409661 0.1205843387 0.5428538941 -0.5461878533 0.6379564864
0.4673055637 -0.3408164720 0.0956991540 0.7122189455 -0.0358866246 -0.7010394595
0.4698925242 -0.3382295115 0.0981949393 0.7122189455 -0.0358866246 -0.7010394595
0.4724794846 -0.3356425510 0.1006907246 0.7122189455 -0.0358866246 -0.7010394595
0.4750664451 -0.3330555905 0.1031865099 0.7122189455 -0.0358866246 -0.7010394595
0.4776534056 -0.3304686300 0.1056822951 0.7122189455 -0.0358866246 -0.7010394595
0.4578151070 -0.3503069286 0.0865440429 0.5920405487 -0.0000035335 -0.8059081764
0.4601877212 -0.3479343144 0.0888328207 0.7121876508 -0.0358882735 -0.7010711675
0.4625603354 -0.3455617003 0.0911215985 0.7121876508 -0.0358882735 -0.7010711675
0.4649329495 -0.3431890861 0.0934103762 0.7121876508 -0.0358882735 -0.7010711675
0.4673055637 -0.3408164720 0.0956991540 0.7122189455 -0.0358866246 -0.7010394595
0.4541596235 -0.3539624121 0.0838586514 0.5920550405 -0.0000000072 -0.8058975301
0.4550734944 -0.3530485412 0.0845299993 0.5920405487 -0.0000035335 -0.8059081764
0.4559873653 -0.3521346704 0.0852013472 0.5920405487 -0.0000035335 -0.8059081764
0.4569012362 -0.3512207995 0.0858726950 0.5920405487 -0.0000035335 -0.8059081764
0.4578151070 -0.3503069286 0.0865440429 0.5920405487 -0.0000035335 -0.8059081764
0.4535805469 -0.3545414888 0.0834332299 0.5920773601 0.0000082296 -0.8058811324
0.4537253160 -0.3543967196 0.0835395853 0.5920550405 -0.0000000072 -0.8058975301
0.4538700852 -0.3542519504 0.0836459407 0.5920550405 -0.0000000072 -0.8058975301
0.4540148544 -0.3541071813 0.0837522960 0.5920550405 -0.0000000072 -0.8058975301
0.4541596235 -0.3539624121 0.0838586514 0.5920550405 -0.0000000072 -0.8058975301
0.4522090451 -0.3559129906 0.0824255804 0.5920531442 -0.0000099715 -0.8058989232
0.4525519205 -0.3555701151 0.0826774928 0.5920773601 0.0000082296 -0.8058811324
0.4528947960 -0.3552272397 0.0829294051 0.5920773601 0.0000082296 -0.8058811324
0.4532376714 -0.3548843642 0.0831813175 0.5920773601 0.0000082296 -0.8058811324
0.4535805469 -0.3545414888 0.0834332299 0.5920773601 0.0000082296 -0.8058811324
0.4516756356 -0.3564464000 0.0820337181 0.5920346409 -0.0000274628 -0.8059125159
0.4518089880 -0.3563130476 0.0821316836 0.5920531442 -0.0000099715 -0.8058989232
0.4519423403 -0.3561796953 0.0822296492 0.5920531442 -0.0000099715 -0.8058989232
0.4520756927 -0.3560463429 0.0823276148 0.5920531442 -0.0000099715 -0.8058989232
0.4522090451 -0.3559129906 0.0824255804 0.5920531442 -0.0000099715 -0.8058989232
0.4504031900 -0.3577188457 0.0810990042 0.5920518766 -0.0000003502 -0.8058998545
0.4507213014 -0.3574007343 0.0813326826 0.5920346409 -0.0000274628 -0.8059125159
0.4510394128 -0.3570826228 0.0815663611 0.5920346409 -0.0000274628 -0.8059125159
0.4513575242 -0.3567645114 0.0818000396 0.5920346409 -0.0000274628 -0.8059125159
0.4516756356 -0.3564464000 0.0820337181 0.5920346409 -0.0000274628 -0.8059125159
0.4478047516 -0.3603172840 0.0791900703 0.5920518766 -0.0000003502 -0.8058998545
0.4484543612 -0.3596676744 0.0796673038 0.5920518766 -0.0000003502 -0.8058998545
0.4491039708 -0.3590180649 0.0801445372 0.5920518766 -0.0000003502 -0.8058998545
0.4497535804 -0.3583684553 0.0806217707 0.5920518766 -0.0000003502 -0.8058998545
0.4504031900 -0.3577188457 0.0810990042 0.5920518766 -0.0000003502 -0.8058998545
0.4438943733 -0.3642276624 0.0791448542 0.4414918744 -0.4323262397 -0.7862435674
0.4448719679 -0.3632500678 0.0791561582 0.4414642135 -0.4323745394 -0.7862325393
0.4458495624 -0.3622724732 0.0791674622 0.4414642135 -0.4323745394 -0.7862325393
0.4468271570 -0.3612948786 0.0791787663 0.4414642135 -0.4323745394 -0.7862325393
0.4478047516 -0.3603172840 0.0791900703 0.5920518766 -0.0000003502 -0.8058998545
0.4418237163 -0.3662983193 0.0791207189 -0.0000002598 -0.9306719352 -0.3658548195
0.4423413806 -0.3657806551 0.0791267527 0.4414918744 -0.4323262397 -0.7862435674
0.4428590448 -0.3652629908 0.0791327865 0.4414918744 -0.4323262397 -0.7862435674
0.4433767090 -0.3647453266 0.0791388204 0.4414918744 -0.4323262397 -0.7862435674
0.4438943733 -0.3642276624 0.0791448542 0.4414918744 -0.4323262397 -0.7862435674
0.4366261440 -0.3714958917 0.0923424471 0.0052520416 -0.9193608021 -0.3933803904
0.4379255371 -0.3701964986 0.0890370151 -0.0000002598 -0.9306719352 -0.3658548195
0.4392249302 -0.3688971055 0.0857315830 -0.0000002598 -0.9306719352 -0.3658548195
0.4405243232 -0.3675977124 0.0824261510 -0.0000002598 -0.9306719352 -0.3658548195
0.4418237163 -0.3662983193 0.0791207189 -0.0000002598 -0.9306719352 -0.3658548195
0.4359453798 -0.3721766558 0.0939243571 0.0054103223 -0.9188302189 -0.3946159617
0.4361155708 -0.3720064648 0.0935288796 0.0052520416 -0.9193608021 -0.3933803904
0.4362857619 -0.3718362738 0.0931334021 0.0052520416 -0.9193608021 -0.3933803904
0.4364559529 -0.3716660827 0.0927379246 0.0052520416 -0.9193608021 -0.3933803904
0.4366261440 -0.3714958917 0.0923424471 0.0052520416 -0.9193608021 -0.3933803904
0.4345066014 -0.3736154342 0.0972547081 0.0054103223 -0.9188302189 -0.3946159617
0.4348662960 -0.3732557396 0.0964221203 0.0054103223 -0.9188302189 -0.3946159617
0.4352259906 -0.3728960450 0.0955895326 0.0054103223 -0.9188302189 -0.3946159617
0.4355856852 -0.3725363504 0.0947569449 0.0054103223 -0.9188302189 -0.3946159617
0.4359453798 -0.3721766558 0.0939243571 0.0054103223 -0.9188302189 -0.3946159617
0.4345066014 -0.3736154342 0.0987733045 0.0041885533 -0.9999912280 0.0000000000
0.4345066014 -0.3736154342 0.0983936554 0.0041885533 -0.9999912280 0.0000000000
0.4345066014 -0.3736154342 0.0980140063 0.0041885533 -0.9999912280 0.0000000000
0.4345066014 -0.3736154342 0.0976343572 0.0041885533 -0.9999912280 0.0000000000
0.4345066014 -0.3736154342 0.0972547081 0.0054103223 -0.9188302189 -0.3946159617
0.4353088522 -0.3728131835 0.1171822017 0.0000004528 -0.7071072173 0.7071063450
0.4351082895 -0.3730137462 0.1125799774 0.0060161601 -0.9990450808 0.0432750774
0.4349077268 -0.3732143089 0.1079777531 0.0060161601 -0.9990450808 0.0432750774
0.4347071641 -0.3734148715 0.1033755288 0.0060161601 -0.9990450808 0.0432750774
0.4345066014 -0.3736154342 0.0987733045 0.0041885533 -0.9999912280 0.0000000000
0.4360643796 -0.3720576561 0.1179377305 0.0149203471 -0.1190051279 0.9927815282
0.4358754977 -0.3722465379 0.1177488483 0.0000004528 -0.7071072173 0.7071063450
0.4356866159 -0.3724354198 0.1175599661 0.0000004528 -0.7071072173 0.7071063450
0.4354977340 -0.3726243016 0.1173710839 0.0000004528 -0.7071072173 0.7071063450
0.4353088522 -0.3728131835 0.1171822017 0.0000004528 -0.7071072173 0.7071063450
0.4703166146 -0.3378054210 0.1215287879 0.0149203471 -0.1190051279 0.9927815282
0.4617535559 -0.3463684798 0.1206310235 0.0149203471 -0.1190051279 0.9927815282
0.4531904971 -0.3549315385 0.1197332592 0.0149203471 -0.1190051279 0.9927815282
0.4446274384 -0.3634945973 0.1188354949 0.0149203471 -0.1190051279 0.9927815282
0.4360643796 -0.3720576561 0.1179377305 0.0149203471 -0.1190051279 0.9927815282
0.4777613251 -0.3303607106 0.1155367162 0.6957644640 -0.1266233564 0.7070207467
0.4759001475 -0.3322218882 0.1170347341 0.6957157234 -0.1266101071 0.7070710806
0.4740389699 -0.3340830658 0.1185327520 0.6957157234 -0.1266101071 0.7070710806
0.4721777923 -0.3359442434 0.1200307699 0.6957157234 -0.1266101071 0.7070710806
0.4703166146 -0.3378054210 0.1215287879 0.0149203471 -0.1190051279 0.9927815282
0.4786831676 -0.3294388680 0.1147946508 0.9838398508 -0.1790506853 0.0000000000
0.4784527070 -0.3296693287 0.1149801671 0.6957644640 -0.1266233564 0.7070207467
0.4782222464 -0.3298997893 0.1151656835 0.6957644640 -0.1266233564 0.7070207467
0.4779917857 -0.3301302499 0.1153511998 0.6957644640 -0.1266233564 0.7070207467
0.4777613251 -0.3303607106 0.1155367162 0.6957644640 -0.1266233564 0.7070207467
0.4786831676 -0.3294388680 0.1109450278 0.9838407329 -0.1790458373 -0.0000208185
0.4786831676 -0.3294388680 0.1119074336 0.9838398508 -0.1790506853 0.0000000000
0.4786831676 -0.3294388680 0.1128698393 0.9838398508 -0.1790506853 0.0000000000
0.4786831676 -0.3294388680 0.1138322451 0.9838398508 -0.1790506853 0.0000000000
0.4786831676 -0.3294388680 0.1147946508 0.9838398508 -0.1790506853 0.0000000000
0.4786830581 -0.3294389776 0.1066756638 0.7122240434 -0.0358888709 -0.7010341653
0.4786830855 -0.3294389502 0.1077430048 0.9838407329 -0.1790458373 -0.0000208185
0.4786831128 -0.3294389228 0.1088103458 0.9838407329 -0.1790458373 -0.0000208185
0.4786831402 -0.3294388954 0.1098776868 0.9838407329 -0.1790458373 -0.0000208185
0.4786831676 -0.3294388680 0.1109450278 0.9838407329 -0.1790458373 -0.0000208185
0.4776534056 -0.3304686300 0.1056822951 0.7122189455 -0.0358866246 -0.7010394595
0.4779108187 -0.3302112169 0.1059306373 0.7122240434 -0.0358888709 -0.7010341653
0.4781682318 -0.3299538038 0.1061789795 0.7122240434 -0.0358888709 -0.7010341653
0.4784256450 -0.3296963907 0.1064273216 0.7122240434 -0.0358888709 -0.7010341653
0.4786830581 -0.3294389776 0.1066756638 0.7122240434 -0.0358888709 -0.7010341653
0.4703166146 -0.3378054210 -0.1203960732 0.6956814695 -0.1266112746 -0.7071045737
0.4721661359 -0.3359558997 -0.1189075305 0.6956959162 -0.1266104833 -0.7070905018
0.4740156572 -0.3341063785 -0.1174189878 0.6956959162 -0.1266104833 -0.7070905018
0.4758651784 -0.3322568572 -0.1159304451 0.6956959162 -0.1266104833 -0.7070905018
0.4777146997 -0.3304073360 -0.1144419024 0.6956959162 -0.1266104833 -0.7070905018
0.4668562372 -0.3412657984 -0.1231809565 0.6956814695 -0.1266112746 -0.7071045737
0.4677213316 -0.3404007041 -0.1224847357 0.6956814695 -0.1266112746 -0.7071045737
0.4685864259 -0.3395356097 -0.1217885149 0.6956814695 -0.1266112746 -0.7071045737
0.4694515203 -0.3386705154 -0.1210922940 0.6956814695 -0.1266112746 -0.7071045737
0.4703166146 -0.3378054210 -0.1203960732 0.6956814695 -0.1266112746 -0.7071045737
0.4424401164 -0.3656819192 -0.1231809565 0.0000000527 -0.7071073290 -0.7071062333
0.4485441466 -0.3595778890 -0.1231809565 0.0000000000 0.0000000000 -1.0000000000
0.4546481768 -0.3534738588 -0.1231809565 0.0000000000 0.0000000000 -1.0000000000
0.4607522070 -0.3473698286 -0.1231809565 0.0000000000 0.0000000000 -1.0000000000
0.4668562372 -0.3412657984 -0.1231809565 0.6956814695 -0.1266112746 -0.7071045737
0.4336505798 -0.3744714558 -0.1143914209 0.0000001032 -0.7071062641 -0.7071072983
0.4358479640 -0.3722740717 -0.1165888048 0.0000000527 -0.7071073290 -0.7071062333
0.4380453481 -0.3700766875 -0.1187861887 0.0000000527 -0.7071073290 -0.7071062333
0.4402427323 -0.3678793034 -0.1209835726 0.0000000527 -0.7071073290 -0.7071062333
0.4424401164 -0.3656819192 -0.1231809565 0.0000000527 -0.7071073290 -0.7071062333
0.4329210911 -0.3752009445 -0.1136619322 0.0000001032 -0.7071062641 -0.7071072983
0.4331034633 -0.3750185724 -0.1138443044 0.0000001032 -0.7071062641 -0.7071072983
0.4332858355 -0.3748362002 -0.1140266766 0.0000001032 -0.7071062641 -0.7071072983
0.4334682076 -0.3746538280 -0.1142090487 0.0000001032 -0.7071062641 -0.7071072983
0.4336505798 -0.3744714558 -0.1143914209 0.0000001032 -0.7071062641 -0.7071072983
0.4329210911 -0.3752009445 -0.0984499599 0.0000001459 -1.0000000000 0.0000000000
0.4329210911 -0.3752009445 -0.1022529529 0.0000001459 -1.0000000000 0.0000000000
0.4329210911 -0.3752009445 -0.1060559460 0.0000001459 -1.0000000000 0.0000000000
0.4329210911 -0.3752009445 -0.1098589391 0.0000001459 -1.0000000000 0.0000000000
0.4329210911 -0.3752009445 -0.1136619322 0.0000001032 -0.7071062641 -0.7071072983
0.4329210911 -0.3752009445 -0.0969809249 0.0000001459 -1.0000000000 0.0000000000
0.4329210911 -0.3752009445 -0.0973481837 0.0000001459 -1.0000000000 0.0000000000
0.4329210911 -0.3752009445 -0.0977154424 0.0000001459 -1.0000000000 0.0000000000
0.4329210911 -0.3752009445 -0.0980827011 0.0000001459 -1.0000000000 0.0000000000
0.4329210911 -0.3752009445 -0.0984499599 0.0000001459 -1.0000000000 0.0000000000
0.4343047766 -0.3738172591 -0.0937640888 0.0024652459 -0.9190045484 0.3942392199
0.4339588552 -0.3741631804 -0.0945682978 0.0024652459 -0.9190045484 0.3942392199
0.4336129338 -0.3745091018 -0.0953725069 0.0024652459 -0.9190045484 0.3942392199
0.4332670125 -0.3748550232 -0.0961767159 0.0024652459 -0.9190045484 0.3942392199
0.4329210911 -0.3752009445 -0.0969809249 0.0000001459 -1.0000000000 0.0000000000
0.4400973305 -0.3680247052 -0.0797915734 0.2785277763 -0.6853468384 0.6728461852
0.4386491920 -0.3694728437 -0.0832847022 0.0009258680 -0.9238992864 0.3826346187
0.4372010535 -0.3709209821 -0.0867778311 0.0009258680 -0.9238992864 0.3826346187
0.4357529150 -0.3723691206 -0.0902709599 0.0009258680 -0.9238992864 0.3826346187
0.4343047766 -0.3738172591 -0.0937640888 0.0024652459 -0.9190045484 0.3942392199
0.4448465195 -0.3632755161 -0.0769201176 0.2785097228 -0.6853733273 0.6728266764
0.4436592223 -0.3644628134 -0.0776379815 0.2785277763 -0.6853468384 0.6728461852
0.4424719250 -0.3656501106 -0.0783558455 0.2785277763 -0.6853468384 0.6728461852
0.4412846277 -0.3668374079 -0.0790737094 0.2785277763 -0.6853468384 0.6728461852
0.4400973305 -0.3680247052 -0.0797915734 0.2785277763 -0.6853468384 0.6728461852
0.4456055246 -0.3625165111 -0.0764611377 0.5910422733 0.0002783232 0.8066405356
0.4454157733 -0.3627062623 -0.0765758826 0.2785097228 -0.6853733273 0.6728266764
0.4452260221 -0.3628960136 -0.0766906276 0.2785097228 -0.6853733273 0.6728266764
0.4450362708 -0.3630857648 -0.0768053726 0.2785097228 -0.6853733273 0.6728266764
0.4448465195 -0.3632755161 -0.0769201176 0.2785097228 -0.6853733273 0.6728266764
0.4578144614 -0.3503075743 -0.0854110911 0.5910422733 0.0002783232 0.8066405356
0.4547622272 -0.3533598085 -0.0831736027 0.5910422733 0.0002783232 0.8066405356
0.4517099930 -0.3564120427 -0.0809361144 0.5910422733 0.0002783232 0.8066405356
0.4486577588 -0.3594642769 -0.0786986260 0.5910422733 0.0002783232 0.8066405356
0.4456055246 -0.3625165111 -0.0764611377 0.5910422733 0.0002783232 0.8066405356
0.4665177676 -0.3416042681 -0.0938069987 0.7195449148 -0.0350858564 0.6935590084
0.4643419410 -0.3437800946 -0.0917080218 0.7121930385 -0.0358883242 0.7010656917
0.4621661145 -0.3459559212 -0.0896090449 0.7121930385 -0.0358883242 0.7010656917
0.4599902879 -0.3481317477 -0.0875100680 0.7121930385 -0.0358883242 0.7010656917
0.4578144614 -0.3503075743 -0.0854110911 0.5910422733 0.0002783232 0.8066405356
0.4774539202 -0.3306681154 -0.1045996669 0.7195449148 -0.0350858564 0.6935590084
0.4747198821 -0.3334021536 -0.1019014999 0.7195449148 -0.0350858564 0.6935590084
0.4719858439 -0.3361361917 -0.0992033328 0.7195449148 -0.0350858564 0.6935590084
0.4692518057 -0.3388702299 -0.0965051658 0.7195449148 -0.0350858564 0.6935590084
0.4665177676 -0.3416042681 -0.0938069987 0.7195449148 -0.0350858564 0.6935590084
0.4786840073 -0.3294380284 -0.1057884305 0.9838415560 -0.1790413157 0.0000000000
0.4783764855 -0.3297455501 -0.1054912396 0.7104957434 -0.0311009597 0.7030138896
0.4780689637 -0.3300530719 -0.1051940487 0.7104957434 -0.0311009597 0.7030138896
0.4777614420 -0.3303605937 -0.1048968578 0.7104957434 -0.0311009597 0.7030138896
0.4774539202 -0.3306681154 -0.1045996669 0.7195449148 -0.0350858564 0.6935590084
0.4786840073 -0.3294380284 -0.1096498456 0.9838415560 -0.1790413157 0.0000000000
0.4786840073 -0.3294380284 -0.1086844918 0.9838415560 -0.1790413157 0.0000000000
0.4786840073 -0.3294380284 -0.1077191380 0.9838415560 -0.1790413157 0.0000000000
0.4786840073 -0.3294380284 -0.1067537842 0.9838415560 -0.1790413157 0.0000000000
0.4786840073 -0.3294380284 -0.1057884305 0.9838415560 -0.1790413157 0.0000000000
0.4786840073 -0.3294380284 -0.1136619322 0.6956227366 -0.1265907190 -0.7071660330
0.4786840073 -0.3294380284 -0.1126589106 0.9838415560 -0.1790413157 0.0000000000
0.4786840073 -0.3294380284 -0.1116558889 0.9838415560 -0.1790413157 0.0000000000
0.4786840073 -0.3294380284 -0.1106528673 0.9838415560 -0.1790413157 0.0000000000
0.4786840073 -0.3294380284 -0.1096498456 0.9838415560 -0.1790413157 0.0000000000
0.4777146997 -0.3304073360 -0.1144419024 0.6956959162 -0.1266104833 -0.7070905018
0.4779570266 -0.3301650091 -0.1142469098 0.6956227366 -0.1265907190 -0.7071660330
0.4781993535 -0.3299226822 -0.1140519173 0.6956227366 -0.1265907190 -0.7071660330
0.4784416804 -0.3296803553 -0.1138569248 0.6956227366 -0.1265907190 -0.7071660330
0.4786840073 -0.3294380284 -0.1136619322 0.6956227366 -0.1265907190 -0.7071660330
0.3800272973 -0.2260642295 0.0784143092 -0.1699037179 0.6903711282 -0.7032214673
0.3815449302 -0.2245465965 0.0801651214 0.1139462269 0.6997049641 -0.7052866230
0.3830625632 -0.2230289636 0.0819159337 0.1139462269 0.6997049641 -0.7052866230
0.3845801961 -0.2215113306 0.0836667459 0.1139462269 0.6997049641 -0.7052866230
0.3860978290 -0.2199936977 0.0854175581 0.1203084498 0.7054362934 -0.6984880191
0.3744755953 -0.2316159314 0.0743053889 -0.1699037179 0.6903711282 -0.7032214673
0.3758635208 -0.2302280059 0.0753326190 -0.1699037179 0.6903711282 -0.7032214673
0.3772514463 -0.2288400804 0.0763598491 -0.1699037179 0.6903711282 -0.7032214673
0.3786393718 -0.2274521550 0.0773870791 -0.1699037179 0.6903711282 -0.7032214673
0.3800272973 -0.2260642295 0.0784143092 -0.1699037179 0.6903711282 -0.7032214673
0.3733681296 -0.2327233972 0.0734858134 -0.1698963664 0.6903380892 -0.7032556770
0.3736449960 -0.2324465307 0.0736907073 -0.1698963664 0.6903380892 -0.7032556770
0.3739218624 -0.2321696643 0.0738956012 -0.1698963664 0.6903380892 -0.7032556770
0.3741987289 -0.2318927978 0.0741004950 -0.1698963664 0.6903380892 -0.7032556770
0.3744755953 -0.2316159314 0.0743053889 -0.1699037179 0.6903711282 -0.7032214673
0.3719877675 -0.2341037593 0.0730579117 -0.0000093921 0.2961005649 -0.9551567701
0.3723328580 -0.2337586687 0.0731648872 -0.0000093921 0.2961005649 -0.9551567701
0.3726779485 -0.2334135782 0.0732718626 -0.0000093921 0.2961005649 -0.9551567701
0.3730230390 -0.2330684877 0.0733788380 -0.0000093921 0.2961005649 -0.9551567701
0.3733681296 -0.2327233972 0.0734858134 -0.1698963664 0.6903380892 -0.7032556770
0.3314724605 -0.2746190662 0.0604989358 0.0000000000 0.2960822621 -0.9551624438
0.3416012873 -0.2644902395 0.0636386798 0.0000000000 0.2960822621 -0.9551624438
0.3517301140 -0.2543614127 0.0667784238 0.0000000000 0.2960822621 -0.9551624438
0.3618589407 -0.2442325860 0.0699181678 0.0000000000 0.2960822621 -0.9551624438
0.3719877675 -0.2341037593 0.0730579117 -0.0000093921 0.2961005649 -0.9551567701
0.3246106916 -0.2814808352 0.0474726059 0.0000000000 0.8847558693 -0.4660547734
0.3263261338 -0.2797653929 0.0507291884 0.0000000000 0.8847558693 -0.4660547734
0.3280415760 -0.2780499507 0.0539857709 0.0000000000 0.8847558693 -0.4660547734
0.3297570183 -0.2763345084 0.0572423534 0.0000000000 0.8847558693 -0.4660547734
0.3314724605 -0.2746190662 0.0604989358 0.0000000000 0.2960822621 -0.9551624438
0.3223798612 -0.2837116655 0.0432375941 -0.0000003118 1.0000000000 -0.0000021217
0.3229375688 -0.2831539579 0.0442963471 -0.0000002759 0.8847566579 -0.4660532763
0.3234952764 -0.2825962503 0.0453551000 -0.0000002759 0.8847566579 -0.4660532763
0.3240529840 -0.2820385427 0.0464138530 -0.0000002759 0.8847566579 -0.4660532763
0.3246106916 -0.2814808352 0.0474726059 0.0000000000 0.8847558693 -0.4660547734
0.3223798504 -0.2837116763 0.0392507188 -0.0000003118 1.0000000000 -0.0000021217
0.3223798531 -0.2837116736 0.0402474376 -0.0000003118 1.0000000000 -0.0000021217
0.3223798558 -0.2837116709 0.0412441564 -0.0000003118 1.0000000000 -0.0000021217
0.3223798585 -0.2837116682 0.0422408753 -0.0000003118 1.0000000000 -0.0000021217
0.3223798612 -0.2837116655 0.0432375941 -0.0000003118 1.0000000000 -0.0000021217
0.3223798504 -0.2837116763 0.0175419650 0.0000000000 1.0000000000 -0.0000000000
0.3223798504 -0.2837116763 0.0229691534 -0.0000000000 1.0000000000 -0.0000000000
0.3223798504 -0.2837116763 0.0283963419 -0.0000000000 1.0000000000 -0.0000000000
0.3223798504 -0.2837116763 0.0338235303 -0.0000000000 1.0000000000 -0.0000000000
0.3223798504 -0.2837116763 0.0392507188 -0.0000003118 1.0000000000 -0.0000021217
0.3223798504 -0.2837116763 -0.0421048755 0.0000000000 1.0000000000 -0.0000000000
0.3223798504 -0.2837116763 -0.0271931654 0.0000000000 1.0000000000 -0.0000000000
0.3223798504 -0.2837116763 -0.0122814553 0.0000000000 1.0000000000 -0.0000000000
0.3223798504 -0.2837116763 0.0026302549 0.0000000000 1.0000000000 -0.0000000000
0.3223798504 -0.2837116763 0.0175419650 0.0000000000 1.0000000000 -0.0000000000
0.3276329142 -0.2784586125 -0.0520772408 0.0000000000 0.8847556619 0.4660551671
0.3263196483 -0.2797718785 -0.0495841495 -0.0000000000 0.8847556619 0.4660551671
0.3250063823 -0.2810851444 -0.0470910581 -0.0000000000 0.8847556619 0.4660551671
0.3236931164 -0.2823984104 -0.0445979668 -0.0000000000 0.8847556619 0.4660551671
0.3223798504 -0.2837116763 -0.0421048755 0.0000000000 1.0000000000 -0.0000000000
0.3314724605 -0.2746190662 -0.0593661982 -0.0000000000 0.2961102468 0.9551537686
0.3305125739 -0.2755789528 -0.0575439589 0.0000000000 0.8847556619 0.4660551671
0.3295526874 -0.2765388394 -0.0557217195 0.0000000000 0.8847556619 0.4660551671
0.3285928008 -0.2774987259 -0.0538994801 0.0000000000 0.8847556619 0.4660551671
0.3276329142 -0.2784586125 -0.0520772408 0.0000000000 0.8847556619 0.4660551671
0.3355981904 -0.2704933364 -0.0606452283 -0.0000004899 0.2961023111 0.9551562288
0.3345667579 -0.2715247688 -0.0603254708 -0.0000000000 0.2961102468 0.9551537686
0.3335353254 -0.2725562013 -0.0600057132 -0.0000000000 0.2961102468 0.9551537686
0.3325038930 -0.2735876338 -0.0596859557 -0.0000000000 0.2961102468 0.9551537686
0.3314724605 -0.2746190662 -0.0593661982 -0.0000000000 0.2961102468 0.9551537686
0.3435642772 -0.2625272496 -0.0631147428 -0.0000004899 0.2961023111 0.9551562288
0.3415727555 -0.2645187713 -0.0624973642 -0.0000004899 0.2961023111 0.9551562288
0.3395812338 -0.2665102930 -0.0618799855 -0.0000004899 0.2961023111 0.9551562288
0.3375897121 -0.2685018147 -0.0612626069 -0.0000004899 0.2961023111 0.9551562288
0.3355981904 -0.2704933364 -0.0606452283 -0.0000004899 0.2961023111 0.9551562288
0.3539731059 -0.2521184208 -0.0663411597 0.0000020223 0.2960700192 0.9551662388
0.3513708988 -0.2547206280 -0.0655345555 0.0000020223 0.2960700192 0.9551662388
0.3487686916 -0.2573228352 -0.0647279513 0.0000020223 0.2960700192 0.9551662388
0.3461664844 -0.2599250424 -0.0639213470 0.0000020223 0.2960700192 0.9551662388
0.3435642772 -0.2625272496 -0.0631147428 -0.0000004899 0.2961023111 0.9551562288
0.3733681296 -0.2327233972 -0.0723530758 -0.1698952978 0.6903357638 0.7032582179
0.3685193736 -0.2375721531 -0.0708500968 0.0000013428 0.2960731604 0.9551652651
0.3636706177 -0.2424209090 -0.0693471177 0.0000013428 0.2960731604 0.9551652651
0.3588218618 -0.2472696649 -0.0678441387 0.0000013428 0.2960731604 0.9551652651
0.3539731059 -0.2521184208 -0.0663411597 0.0000020223 0.2960700192 0.9551662388
0.3744755953 -0.2316159314 -0.0731726465 -0.1699036318 0.6903732181 0.7032194363
0.3741987289 -0.2318927978 -0.0729677539 -0.1698952978 0.6903357638 0.7032582179
0.3739218624 -0.2321696643 -0.0727628612 -0.1698952978 0.6903357638 0.7032582179
0.3736449960 -0.2324465307 -0.0725579685 -0.1698952978 0.6903357638 0.7032582179
0.3733681296 -0.2327233972 -0.0723530758 -0.1698952978 0.6903357638 0.7032582179
0.3800272973 -0.2260642295 -0.0772815944 -0.1699036318 0.6903732181 0.7032194363
0.3786393718 -0.2274521550 -0.0762543575 -0.1699036318 0.6903732181 0.7032194363
0.3772514463 -0.2288400804 -0.0752271205 -0.1699036318 0.6903732181 0.7032194363
0.3758635208 -0.2302280059 -0.0741998835 -0.1699036318 0.6903732181 0.7032194363
0.3744755953 -0.2316159314 -0.0731726465 -0.1699036318 0.6903732181 0.7032194363
0.3879443216 -0.2181472051 -0.0864677947 0.1184512420 0.6993950821 0.7048516315
0.3859650655 -0.2201264612 -0.0841712447 0.1184512420 0.6993950821 0.7048516315
0.3839858094 -0.2221057173 -0.0818746946 0.1184512420 0.6993950821 0.7048516315
0.3820065533 -0.2240849734 -0.0795781445 0.1184512420 0.6993950821 0.7048516315
0.3800272973 -0.2260642295 -0.0772815944 -0.1699036318 0.6903732181 0.7032194363
0.3879445693 -0.2181469574 -0.1081185099 0.2304703268 0.9730793536 0.0000000000
0.3879445074 -0.2181470193 -0.1027058311 0.2304617084 0.9730813947 0.0000135309
0.3879444455 -0.2181470813 -0.0972931523 0.2304617084 0.9730813947 0.0000135309
0.3879443835 -0.2181471432 -0.0918804735 0.2304617084 0.9730813947 0.0000135309
0.3879443216 -0.2181472051 -0.0864677947 0.1184512420 0.6993950821 0.7048516315
0.3879445693 -0.2181469574 -0.1136619322 0.1629697104 0.6880819005 -0.7070955888
0.3879445693 -0.2181469574 -0.1122760766 0.2304703268 0.9730793536 0.0000000000
0.3879445693 -0.2181469574 -0.1108902211 0.2304703268 0.9730793536 0.0000000000
0.3879445693 -0.2181469574 -0.1095043655 0.2304703268 0.9730793536 0.0000000000
0.3879445693 -0.2181469574 -0.1081185099 0.2304703268 0.9730793536 0.0000000000
0.3865306592 -0.2195608676 -0.1153636957 0.1629697104 0.6880819005 -0.7070955888
