ply
format ascii 1.0
comment n_points_per_edge=5 
element vertex 580
property float x
property float y
property float z
property float nx
property float ny
property float nz
element face 0
property list uchar int vertex_index
end_header
-0.3444427676 0.0832729549 0.2306477047 -0.4505078776 -0.3381516816 0.8262542541
-0.3440511996 0.0836521021 0.2310163724 -0.4505078776 -0.3381516816 0.8262542541
-0.3436596315 0.0840312493 0.2313850401 -0.4505078776 -0.3381516816 0.8262542541
-0.3432680634 0.0844103965 0.2317537077 -0.4505078776 -0.3381516816 0.8262542541
-0.3505630653 0.0758364652 0.2291687831 -0.0230181169 -0.1371071953 0.9902887373
-0.3491308829 0.0776008008 0.2294463466 -0.0230181169 -0.1371071953 0.9902887373
-0.3476987005 0.0793651365 0.2297239101 -0.0230181169 -0.1371071953 0.9902887373
-0.3462665181 0.0811294721 0.2300014735 -0.0230181169 -0.1371071953 0.9902887373
-0.3448343357 0.0828938077 0.2302790370 -0.0230181169 -0.1371071953 0.9902887373
-0.3529097587 0.0729476775 0.2287078766 -0.1504294477 -0.1927645089 0.9696457216
-0.3523230853 0.0736698744 0.2288231032 -0.0270611998 -0.1360260648 0.9903356003
-0.3517364120 0.0743920713 0.2289383298 -0.0270611998 -0.1360260648 0.9903356003
-0.3511497386 0.0751142683 0.2290535565 -0.0270611998 -0.1360260648 0.9903356003
-0.3505630653 0.0758364652 0.2291687831 -0.0230181169 -0.1371071953 0.9902887373
-0.3540054148 0.0716723720 0.2282843685 -0.1292745715 -0.1358643650 0.9822570740
-0.3537315007 0.0719911984 0.2283902455 -0.1504294477 -0.1927645089 0.9696457216
-0.3534575867 0.0723100248 0.2284961225 -0.1504294477 -0.1927645089 0.9696457216
-0.3531836727 0.0726288511 0.2286019996 -0.1504294477 -0.1927645089 0.9696457216
-0.3529097587 0.0729476775 0.2287078766 -0.1504294477 -0.1927645089 0.9696457216
-0.3668987170 0.0562578773 0.2244553616 -0.1292745715 -0.1358643650 0.9822570740
-0.3636753914 0.0601115010 0.2254126134 -0.1292745715 -0.1358643650 0.9822570740
-0.3604520659 0.0639651247 0.2263698651 -0.1292745715 -0.1358643650 0.9822570740
-0.3572287403 0.0678187484 0.2273271168 -0.1292745715 -0.1358643650 0.9822570740
-0.3540054148 0.0716723720 0.2282843685 -0.1292745715 -0.1358643650 0.9822570740
-0.3688830604 0.0540015102 0.2235370712 -0.1896352642 -0.1510435419 0.9701671583
-0.3683869745 0.0545656020 0.2237666438 -0.2167605021 -0.1983837609 0.9558549933
-0.3678908887 0.0551296937 0.2239962164 -0.2167605021 -0.1983837609 0.9558549933
-0.3673948028 0.0556937855 0.2242257890 -0.2167605021 -0.1983837609 0.9558549933
-0.3668987170 0.0562578773 0.2244553616 -0.1292745715 -0.1358643650 0.9822570740
-0.3754378513 0.0463503784 0.2210646380 -0.1896352642 -0.1510435419 0.9701671583
-0.3737991536 0.0482631613 0.2216827463 -0.1896352642 -0.1510435419 0.9701671583
-0.3721604558 0.0501759443 0.2223008546 -0.1896352642 -0.1510435419 0.9701671583
-0.3705217581 0.0520887272 0.2229189629 -0.1896352642 -0.1510435419 0.9701671583
-0.3688830604 0.0540015102 0.2235370712 -0.1896352642 -0.1510435419 0.9701671583
-0.3823599993 0.0384622859 0.2179095650 -0.1593895884 -0.2878674056 0.9443131450
-0.3806294623 0.0404343090 0.2186983333 -0.1602216715 -0.2421469160 0.9569189553
-0.3788989253 0.0424063322 0.2194871015 -0.1602216715 -0.2421469160 0.9569189553
-0.3771683883 0.0443783553 0.2202758698 -0.1602216715 -0.2421469160 0.9569189553
-0.3754378513 0.0463503784 0.2210646380 -0.1896352642 -0.1510435419 0.9701671583
-0.3961014258 0.0230674732 0.2108971599 -0.2286035119 -0.3048165688 0.9245687069
-0.3926660692 0.0269161764 0.2126502612 -0.1593895884 -0.2878674056 0.9443131450
-0.3892307125 0.0307648796 0.2144033625 -0.1593895884 -0.2878674056 0.9443131450
-0.3857953559 0.0346135828 0.2161564637 -0.1593895884 -0.2878674056 0.9443131450
-0.3823599993 0.0384622859 0.2179095650 -0.1593895884 -0.2878674056 0.9443131450
-0.4026861399 0.0159115706 0.2069098673 -0.2553333598 -0.2518080037 0.9334867994
-0.4010399613 0.0177005462 0.2079066905 -0.2286035119 -0.3048165688 0.9245687069
-0.3993937828 0.0194895219 0.2089035136 -0.2286035119 -0.3048165688 0.9245687069
-0.3977476043 0.0212784976 0.2099003368 -0.2286035119 -0.3048165688 0.9245687069
-0.3961014258 0.0230674732 0.2108971599 -0.2286035119 -0.3048165688 0.9245687069
-0.4128571092 0.0047310601 0.2011118944 -0.2553333598 -0.2518080037 0.9334867994
-0.4103143669 0.0075261877 0.2025613876 -0.2553333598 -0.2518080037 0.9334867994
-0.4077716245 0.0103213153 0.2040108809 -0.2553333598 -0.2518080037 0.9334867994
-0.4052288822 0.0131164429 0.2054603741 -0.2553333598 -0.2518080037 0.9334867994
-0.4026861399 0.0159115706 0.2069098673 -0.2553333598 -0.2518080037 0.9334867994
-0.4139826223 0.0036885335 0.1999181033 -0.4369167727 -0.3090808683 0.8447323544
-0.4137012440 0.0039491652 0.2002165511 -0.5554237396 -0.2919668137 0.7786268998
-0.4134198657 0.0042097968 0.2005149989 -0.5554237396 -0.2919668137 0.7786268998
-0.4131384875 0.0044704285 0.2008134466 -0.5554237396 -0.2919668137 0.7786268998
-0.4128571092 0.0047310601 0.2011118944 -0.2553333598 -0.2518080037 0.9334867994
-0.4181710558 -0.0004586120 0.1962343330 -0.4369167727 -0.3090808683 0.8447323544
-0.4171239475 0.0005781744 0.1971552756 -0.4369167727 -0.3090808683 0.8447323544
-0.4160768391 0.0016149607 0.1980762182 -0.4369167727 -0.3090808683 0.8447323544
-0.4150297307 0.0026517471 0.1989971607 -0.4369167727 -0.3090808683 0.8447323544
-0.4139826223 0.0036885335 0.1999181033 -0.4369167727 -0.3090808683 0.8447323544
-0.4278522656 -0.0100885024 0.1878447220 -0.4207592387 -0.3173839336 0.8498406331
-0.4254319632 -0.0076810298 0.1899421248 -0.4207592387 -0.3173839336 0.8498406331
-0.4230116607 -0.0052735572 0.1920395275 -0.4207592387 -0.3173839336 0.8498406331
-0.4205913583 -0.0028660846 0.1941369303 -0.4207592387 -0.3173839336 0.8498406331
-0.4181710558 -0.0004586120 0.1962343330 -0.4369167727 -0.3090808683 0.8447323544
-0.4308894899 -0.0128622759 0.1845111946 -0.5229360921 -0.3864476279 0.7597342130
-0.4301301838 -0.0121688325 0.1853445764 -0.5162162266 -0.3655705255 0.7745185590
-0.4293708778 -0.0114753891 0.1861779583 -0.5162162266 -0.3655705255 0.7745185590
-0.4286115717 -0.0107819457 0.1870113402 -0.5162162266 -0.3655705255 0.7745185590
-0.4278522656 -0.0100885024 0.1878447220 -0.4207592387 -0.3173839336 0.8498406331
-0.4326588431 -0.0144489016 0.1824862651 -0.5605828513 -0.4037636682 0.7229949980
-0.4322165048 -0.0140522452 0.1829924974 -0.5229360921 -0.3864476279 0.7597342130
-0.4317741665 -0.0136555888 0.1834987298 -0.5229360921 -0.3864476279 0.7597342130
-0.4313318282 -0.0132589323 0.1840049622 -0.5229360921 -0.3864476279 0.7597342130
-0.4308894899 -0.0128622759 0.1845111946 -0.5229360921 -0.3864476279 0.7597342130
-0.4422335172 -0.0226632868 0.1704750215 -0.5703274233 -0.4814430878 0.6655367634
-0.4398398487 -0.0206096905 0.1734778324 -0.5605828513 -0.4037636682 0.7229949980
-0.4374461802 -0.0185560942 0.1764806433 -0.5605828513 -0.4037636682 0.7229949980
-0.4350525116 -0.0165024979 0.1794834542 -0.5605828513 -0.4037636682 0.7229949980
-0.4326588431 -0.0144489016 0.1824862651 -0.5605828513 -0.4037636682 0.7229949980
-0.4427595679 -0.0230816322 0.1697215997 -0.5939162687 -0.4794839945 0.6460329441
-0.4426280552 -0.0229770459 0.1699099552 -0.5703274233 -0.4814430878 0.6655367634
-0.4424965426 -0.0228724595 0.1700983106 -0.5703274233 -0.4814430878 0.6655367634
-0.4423650299 -0.0227678731 0.1702866660 -0.5703274233 -0.4814430878 0.6655367634
-0.4422335172 -0.0226632868 0.1704750215 -0.5703274233 -0.4814430878 0.6655367634
-0.4484768809 -0.0275047906 0.1611826672 -0.6250350476 -0.5352902973 0.5681509367
-0.4470475526 -0.0263990010 0.1633174003 -0.5939162687 -0.4794839945 0.6460329441
-0.4456182244 -0.0252932114 0.1654521335 -0.5939162687 -0.4794839945 0.6460329441
-0.4441888962 -0.0241874218 0.1675868666 -0.5939162687 -0.4794839945 0.6460329441
-0.4427595679 -0.0230816322 0.1697215997 -0.5939162687 -0.4794839945 0.6460329441
-0.4604836494 -0.0357275805 0.1402265679 -0.6250350476 -0.5352902973 0.5681509367
-0.4574819573 -0.0336718831 0.1454655927 -0.6250350476 -0.5352902973 0.5681509367
-0.4544802652 -0.0316161856 0.1507046175 -0.6250350476 -0.5352902973 0.5681509367
-0.4514785730 -0.0295604881 0.1559436424 -0.6250350476 -0.5352902973 0.5681509367
-0.4484768809 -0.0275047906 0.1611826672 -0.6250350476 -0.5352902973 0.5681509367
-0.4623758451 -0.0368314664 0.1363795464 -0.6729184198 -0.4724776238 0.5691622750
-0.4619027962 -0.0365554950 0.1373413017 -0.7586503789 -0.4238524160 0.4947713937
-0.4614297473 -0.0362795235 0.1383030571 -0.7586503789 -0.4238524160 0.4947713937
-0.4609566984 -0.0360035520 0.1392648125 -0.7586503789 -0.4238524160 0.4947713937
-0.4604836494 -0.0357275805 0.1402265679 -0.6250350476 -0.5352902973 0.5681509367
-0.4651919281 -0.0387558630 0.1314526006 -0.7446783844 -0.5451309163 0.3850797162
-0.4644879074 -0.0382747639 0.1326843371 -0.6729184198 -0.4724776238 0.5691622750
-0.4637838866 -0.0377936647 0.1339160735 -0.6729184198 -0.4724776238 0.5691622750
-0.4630798659 -0.0373125656 0.1351478099 -0.6729184198 -0.4724776238 0.5691622750
-0.4623758451 -0.0368314664 0.1363795464 -0.6729184198 -0.4724776238 0.5691622750
-0.4692922547 -0.0404472276 0.1211289252 -0.7446783844 -0.5451309163 0.3850797162
-0.4682671730 -0.0400243864 0.1237098441 -0.7446783844 -0.5451309163 0.3850797162
-0.4672420914 -0.0396015453 0.1262907629 -0.7446783844 -0.5451309163 0.3850797162
-0.4662170098 -0.0391787042 0.1288716818 -0.7446783844 -0.5451309163 0.3850797162
-0.4651919281 -0.0387558630 0.1314526006 -0.7446783844 -0.5451309163 0.3850797162
-0.4719532368 -0.0418942012 0.1154199222 -0.6429222249 -0.6467258155 0.4103617091
-0.4712879913 -0.0415324578 0.1168471730 -0.6513003089 -0.6057022583 0.4570915466
-0.4706227457 -0.0411707144 0.1182744237 -0.6513003089 -0.6057022583 0.4570915466
-0.4699575002 -0.0408089710 0.1197016745 -0.6513003089 -0.6057022583 0.4570915466
-0.4692922547 -0.0404472276 0.1211289252 -0.7446783844 -0.5451309163 0.3850797162
-0.4738098942 -0.0427867075 0.1111044620 -0.7780775016 -0.6129549416 0.1374104838
-0.4733457298 -0.0425635809 0.1121833271 -0.6429222249 -0.6467258155 0.4103617091
-0.4728815655 -0.0423404543 0.1132621921 -0.6429222249 -0.6467258155 0.4103617091
-0.4724174011 -0.0421173277 0.1143410572 -0.6429222249 -0.6467258155 0.4103617091
-0.4719532368 -0.0418942012 0.1154199222 -0.6429222249 -0.6467258155 0.4103617091
-0.4794204994 -0.0412682858 0.0861081828 -0.7613094247 -0.6455451952 0.0606577347
-0.4780178481 -0.0416478912 0.0923572526 -0.7780775016 -0.6129549416 0.1374104838
-0.4766151968 -0.0420274966 0.0986063224 -0.7780775016 -0.6129549416 0.1374104838
-0.4752125455 -0.0424071020 0.1048553922 -0.7780775016 -0.6129549416 0.1374104838
-0.4738098942 -0.0427867075 0.1111044620 -0.7780775016 -0.6129549416 0.1374104838
-0.4797308606 -0.0410641954 0.0843848639 -0.7613094247 -0.6455451952 0.0606577347
-0.4796532703 -0.0411152180 0.0848156936 -0.7613094247 -0.6455451952 0.0606577347
-0.4795756800 -0.0411662406 0.0852465233 -0.7613094247 -0.6455451952 0.0606577347
-0.4794980897 -0.0412172632 0.0856773531 -0.7613094247 -0.6455451952 0.0606577347
-0.4794204994 -0.0412682858 0.0861081828 -0.7613094247 -0.6455451952 0.0606577347
-0.4800253291 -0.0409301784 0.0829188854 -0.7353613305 -0.6673377051 0.1179156516
-0.4799517120 -0.0409636827 0.0832853800 -0.7547628054 -0.6494815683 0.0922323153
-0.4798780948 -0.0409971869 0.0836518746 -0.7547628054 -0.6494815683 0.0922323153
-0.4798044777 -0.0410306912 0.0840183693 -0.7547628054 -0.6494815683 0.0922323153
-0.4797308606 -0.0410641954 0.0843848639 -0.7613094247 -0.6455451952 0.0606577347
-0.4809189392 -0.0406620876 0.0788632426 -0.8468207009 -0.5255439918 0.0818426123
-0.4806955366 -0.0407291103 0.0798771533 -0.7353613305 -0.6673377051 0.1179156516
-0.4804721341 -0.0407961330 0.0808910640 -0.7353613305 -0.6673377051 0.1179156516
-0.4802487316 -0.0408631557 0.0819049747 -0.7353613305 -0.6673377051 0.1179156516
-0.4800253291 -0.0409301784 0.0829188854 -0.7353613305 -0.6673377051 0.1179156516
-0.4842531547 -0.0382636327 0.0597656206 -0.8138910178 -0.5714552921 -0.1049774275
-0.4834196008 -0.0388632464 0.0645400261 -0.8468207009 -0.5255439918 0.0818426123
-0.4825860469 -0.0394628601 0.0693144316 -0.8468207009 -0.5255439918 0.0818426123
-0.4817524930 -0.0400624739 0.0740888371 -0.8468207009 -0.5255439918 0.0818426123
-0.4809189392 -0.0406620876 0.0788632426 -0.8468207009 -0.5255439918 0.0818426123
-0.4847050434 -0.0362809409 0.0524761275 -0.8232902451 -0.3846561467 -0.4174120521
-0.4845920712 -0.0367766138 0.0542985008 -0.8138910178 -0.5714552921 -0.1049774275
-0.4844790990 -0.0372722868 0.0561208740 -0.8138910178 -0.5714552921 -0.1049774275
-0.4843661268 -0.0377679597 0.0579432473 -0.8138910178 -0.5714552921 -0.1049774275
-0.4842531547 -0.0382636327 0.0597656206 -0.8138910178 -0.5714552921 -0.1049774275
-0.4839880836 -0.0341613929 0.0491087928 -0.7314402772 -0.3179176482 -0.6032607146
-0.4841673236 -0.0346912799 0.0499506265 -0.8232902451 -0.3846561467 -0.4174120521
-0.4843465635 -0.0352211669 0.0507924601 -0.8232902451 -0.3846561467 -0.4174120521
-0.4845258035 -0.0357510539 0.0516342938 -0.8232902451 -0.3846561467 -0.4174120521
-0.4847050434 -0.0362809409 0.0524761275 -0.8232902451 -0.3846561467 -0.4174120521
-0.4796014961 -0.0248526113 0.0388844277 -0.7314402772 -0.3179176482 -0.6032607146
-0.4806981430 -0.0271798067 0.0414405190 -0.7314402772 -0.3179176482 -0.6032607146
-0.4817947898 -0.0295070021 0.0439966102 -0.7314402772 -0.3179176482 -0.6032607146
-0.4828914367 -0.0318341975 0.0465527015 -0.7314402772 -0.3179176482 -0.6032607146
-0.4839880836 -0.0341613929 0.0491087928 -0.7314402772 -0.3179176482 -0.6032607146
-0.4762810606 -0.0193939163 0.0356476618 -0.7277285407 0.0365549551 -0.6848904338
-0.4771111694 -0.0207585901 0.0364568533 -0.7277285407 0.0365549551 -0.6848904338
-0.4779412783 -0.0221232638 0.0372660447 -0.7277285407 0.0365549551 -0.6848904338
-0.4787713872 -0.0234879376 0.0380752362 -0.7277285407 0.0365549551 -0.6848904338
-0.4796014961 -0.0248526113 0.0388844277 -0.7314402772 -0.3179176482 -0.6032607146
-0.4705783987 -0.0094490140 0.0284724123 -0.8169943477 0.0329776574 -0.5757019281
-0.4720040642 -0.0119352395 0.0302662247 -0.7914886284 0.0129893974 -0.6110458467
-0.4734297296 -0.0144214651 0.0320600371 -0.7914886284 0.0129893974 -0.6110458467
-0.4748553951 -0.0169076907 0.0338538494 -0.7914886284 0.0129893974 -0.6110458467
-0.4762810606 -0.0193939163 0.0356476618 -0.7277285407 0.0365549551 -0.6848904338
-0.4705672493 -0.0094293354 0.0284577172 -0.9325357110 -0.0688755121 -0.3544478967
-0.4705700366 -0.0094342551 0.0284613910 -0.8169943477 0.0329776574 -0.5757019281
-0.4705728240 -0.0094391747 0.0284650648 -0.8169943477 0.0329776574 -0.5757019281
-0.4705756113 -0.0094440943 0.0284687386 -0.8169943477 0.0329776574 -0.5757019281
-0.4705783987 -0.0094490140 0.0284724123 -0.8169943477 0.0329776574 -0.5757019281
-0.4705640455 -0.0094216726 0.0284477991 -0.9325357110 -0.0688755121 -0.3544478967
-0.4705648464 -0.0094235883 0.0284502787 -0.9325357110 -0.0688755121 -0.3544478967
-0.4705656474 -0.0094255040 0.0284527582 -0.9325357110 -0.0688755121 -0.3544478967
-0.4705664484 -0.0094274197 0.0284552377 -0.9325357110 -0.0688755121 -0.3544478967
-0.4705672493 -0.0094293354 0.0284577172 -0.9325357110 -0.0688755121 -0.3544478967
-0.4705566447 -0.0094079308 0.0284361178 -0.9058659860 0.1516946317 -0.3954687778
-0.4705584949 -0.0094113662 0.0284390381 -0.9058659860 0.1516946317 -0.3954687778
-0.4705603451 -0.0094148017 0.0284419585 -0.9058659860 0.1516946317 -0.3954687778
-0.4705621953 -0.0094182371 0.0284448788 -0.9058659860 0.1516946317 -0.3954687778
-0.4705640455 -0.0094216726 0.0284477991 -0.9325357110 -0.0688755121 -0.3544478967
-0.4645194732 0.0032142275 0.0149014853 -0.8762506157 -0.1226092670 -0.4659955216
-0.4660287661 0.0000586879 0.0182851434 -0.8704601207 -0.1003884271 -0.4818934965
-0.4675380589 -0.0030968517 0.0216688015 -0.8704601207 -0.1003884271 -0.4818934965
-0.4690473518 -0.0062523912 0.0250524597 -0.8704601207 -0.1003884271 -0.4818934965
-0.4705566447 -0.0094079308 0.0284361178 -0.9058659860 0.1516946317 -0.3954687778
-0.4596501459 0.0137516380 0.0029727910 -0.8762506157 -0.1226092670 -0.4659955216
-0.4608674777 0.0111172854 0.0059549646 -0.8762506157 -0.1226092670 -0.4659955216
-0.4620848095 0.0084829327 0.0089371382 -0.8762506157 -0.1226092670 -0.4659955216
-0.4633021414 0.0058485801 0.0119193117 -0.8762506157 -0.1226092670 -0.4659955216
-0.4645194732 0.0032142275 0.0149014853 -0.8762506157 -0.1226092670 -0.4659955216
-0.4596479648 0.0137578426 0.0029632373 -0.7123930654 -0.4887812219 -0.5035762479
-0.4596485100 0.0137562915 0.0029656258 -0.7018605852 -0.5134658960 -0.4937048639
-0.4596490553 0.0137547403 0.0029680142 -0.7018605852 -0.5134658960 -0.4937048639
-0.4596496006 0.0137531891 0.0029704026 -0.7018605852 -0.5134658960 -0.4937048639
-0.4596501459 0.0137516380 0.0029727910 -0.8762506157 -0.1226092670 -0.4659955216
-0.4596457464 0.0137639101 0.0029542099 -0.5900334503 -0.3898110754 -0.7070416204
-0.4596463010 0.0137623933 0.0029564667 -0.7123930654 -0.4887812219 -0.5035762479
-0.4596468556 0.0137608764 0.0029587236 -0.7123930654 -0.4887812219 -0.5035762479
-0.4596474102 0.0137593595 0.0029609805 -0.7123930654 -0.4887812219 -0.5035762479
-0.4596479648 0.0137578426 0.0029632373 -0.7123930654 -0.4887812219 -0.5035762479
-0.4559297720 0.0211188219 -0.0042017886 -0.5900334503 -0.3898110754 -0.7070416204
-0.4568587656 0.0192800940 -0.0024127890 -0.5900334503 -0.3898110754 -0.7070416204
-0.4577877592 0.0174413660 -0.0006237894 -0.5900334503 -0.3898110754 -0.7070416204
-0.4587167528 0.0156026381 0.0011652102 -0.5900334503 -0.3898110754 -0.7070416204
-0.4596457464 0.0137639101 0.0029542099 -0.5900334503 -0.3898110754 -0.7070416204
-0.4552284778 0.0224152287 -0.0052923913 -0.6141786434 -0.3483766446 -0.7081089658
-0.4554038013 0.0220911270 -0.0050197406 -0.5826021469 -0.3150970435 -0.7491919591
-0.4555791249 0.0217670253 -0.0047470900 -0.5826021469 -0.3150970435 -0.7491919591
-0.4557544484 0.0214429236 -0.0044744393 -0.5826021469 -0.3150970435 -0.7491919591
-0.4559297720 0.0211188219 -0.0042017886 -0.5900334503 -0.3898110754 -0.7070416204
-0.4516559064 0.0293573314 -0.0118064456 -0.9246223051 -0.0793227999 -0.3725338727
-0.4525490492 0.0276218057 -0.0101779320 -0.6141786434 -0.3483766446 -0.7081089658
-0.4534421921 0.0258862800 -0.0085494185 -0.6141786434 -0.3483766446 -0.7081089658
-0.4543353349 0.0241507543 -0.0069209049 -0.6141786434 -0.3483766446 -0.7081089658
-0.4552284778 0.0224152287 -0.0052923913 -0.6141786434 -0.3483766446 -0.7081089658
-0.4510905212 0.0306871048 -0.0134928626 -0.7443009606 0.0704841631 -0.6641144952
-0.4512318675 0.0303546614 -0.0130712583 -0.9246223051 -0.0793227999 -0.3725338727
-0.4513732138 0.0300222181 -0.0126496541 -0.9246223051 -0.0793227999 -0.3725338727
-0.4515145601 0.0296897747 -0.0122280498 -0.9246223051 -0.0793227999 -0.3725338727
-0.4516559064 0.0293573314 -0.0118064456 -0.9246223051 -0.0793227999 -0.3725338727
-0.4508465096 0.0310858854 -0.0137240126 -0.7443009606 0.0704841631 -0.6641144952
-0.4509075125 0.0309861903 -0.0136662251 -0.7443009606 0.0704841631 -0.6641144952
-0.4509685154 0.0308864951 -0.0136084376 -0.7443009606 0.0704841631 -0.6641144952
-0.4510295183 0.0307867999 -0.0135506501 -0.7443009606 0.0704841631 -0.6641144952
-0.4510905212 0.0306871048 -0.0134928626 -0.7443009606 0.0704841631 -0.6641144952
-0.4485163559 0.0371687845 -0.0223828805 -0.6588822145 -0.1394571880 -0.7392062772
-0.4490988943 0.0356480597 -0.0202181635 -0.8419227176 -0.3080877206 -0.4429989774
-0.4496814327 0.0341273350 -0.0180534465 -0.8419227176 -0.3080877206 -0.4429989774
-0.4502639712 0.0326066102 -0.0158887296 -0.8419227176 -0.3080877206 -0.4429989774
-0.4508465096 0.0310858854 -0.0137240126 -0.7443009606 0.0704841631 -0.6641144952
-0.4479740947 0.0381066759 -0.0230431585 -0.6016873376 -0.4810716473 -0.6376067895
-0.4481096600 0.0378722030 -0.0228780890 -0.6588822145 -0.1394571880 -0.7392062772
-0.4482452253 0.0376377302 -0.0227130195 -0.6588822145 -0.1394571880 -0.7392062772
-0.4483807906 0.0374032573 -0.0225479500 -0.6588822145 -0.1394571880 -0.7392062772
-0.4485163559 0.0371687845 -0.0223828805 -0.6588822145 -0.1394571880 -0.7392062772
-0.4469455807 0.0403950021 -0.0257402634 -0.4563668702 -0.6203253529 -0.6379073102
-0.4472027092 0.0398229206 -0.0250659871 -0.6016873376 -0.4810716473 -0.6376067895
-0.4474598377 0.0392508390 -0.0243917109 -0.6016873376 -0.4810716473 -0.6376067895
-0.4477169662 0.0386787574 -0.0237174347 -0.6016873376 -0.4810716473 -0.6376067895
-0.4479740947 0.0381066759 -0.0230431585 -0.6016873376 -0.4810716473 -0.6376067895
-0.4427291494 0.0503567278 -0.0384439108 -0.4604221394 -0.5927804219 -0.6607744131
-0.4437832572 0.0478662964 -0.0352679989 -0.4563668702 -0.6203253529 -0.6379073102
-0.4448373651 0.0453758650 -0.0320920871 -0.4563668702 -0.6203253529 -0.6379073102
-0.4458914729 0.0428854336 -0.0289161752 -0.4563668702 -0.6203253529 -0.6379073102
-0.4469455807 0.0403950021 -0.0257402634 -0.4563668702 -0.6203253529 -0.6379073102
-0.4377723842 0.0615649436 -0.0519526285 -0.4132638120 -0.6688912428 -0.6178976671
-0.4390115755 0.0587628897 -0.0485754491 -0.4604221394 -0.5927804219 -0.6607744131
-0.4402507668 0.0559608357 -0.0451982696 -0.4604221394 -0.5927804219 -0.6607744131
-0.4414899581 0.0531587818 -0.0418210902 -0.4604221394 -0.5927804219 -0.6607744131
-0.4427291494 0.0503567278 -0.0384439108 -0.4604221394 -0.5927804219 -0.6607744131
-0.4362047309 0.0654595478 -0.0572171272 -0.4048910567 -0.6584450680 -0.6344393783
-0.4365966442 0.0644858968 -0.0559010025 -0.4132638120 -0.6688912428 -0.6178976671
-0.4369885576 0.0635122457 -0.0545848779 -0.4132638120 -0.6688912428 -0.6178976671
-0.4373804709 0.0625385947 -0.0532687532 -0.4132638120 -0.6688912428 -0.6178976671
-0.4377723842 0.0615649436 -0.0519526285 -0.4132638120 -0.6688912428 -0.6178976671
-0.4289688399 0.0828660388 -0.0799001023 -0.4900348571 -0.5416095509 -0.6830263049
-0.4307778127 0.0785144160 -0.0742293585 -0.4048910567 -0.6584450680 -0.6344393783
-0.4325867854 0.0741627933 -0.0685586147 -0.4048910567 -0.6584450680 -0.6344393783
-0.4343957582 0.0698111706 -0.0628878710 -0.4048910567 -0.6584450680 -0.6344393783
-0.4362047309 0.0654595478 -0.0572171272 -0.4048910567 -0.6584450680 -0.6344393783
-0.4289480187 0.0829109302 -0.0799506373 -0.4823053124 -0.5803157365 -0.6562127945
-0.4289532240 0.0828997074 -0.0799380035 -0.4900348571 -0.5416095509 -0.6830263049
-0.4289584293 0.0828884845 -0.0799253698 -0.4900348571 -0.5416095509 -0.6830263049
-0.4289636346 0.0828772616 -0.0799127360 -0.4900348571 -0.5416095509 -0.6830263049
-0.4289688399 0.0828660388 -0.0799001023 -0.4900348571 -0.5416095509 -0.6830263049
-0.4289268147 0.0829589780 -0.0800087125 -0.4682283583 -0.5727220948 -0.6728681941
-0.4289321157 0.0829469661 -0.0799941937 -0.4823053124 -0.5803157365 -0.6562127945
-0.4289374167 0.0829349541 -0.0799796749 -0.4823053124 -0.5803157365 -0.6562127945
-0.4289427177 0.0829229422 -0.0799651561 -0.4823053124 -0.5803157365 -0.6562127945
-0.4289480187 0.0829109302 -0.0799506373 -0.4823053124 -0.5803157365 -0.6562127945
-0.4226901842 0.0967319663 -0.0960716672 -0.4682283583 -0.5727220948 -0.6728681941
-0.4242493418 0.0932887193 -0.0920559285 -0.4682283583 -0.5727220948 -0.6728681941
-0.4258084994 0.0898454722 -0.0880401898 -0.4682283583 -0.5727220948 -0.6728681941
-0.4273676571 0.0864022251 -0.0840244512 -0.4682283583 -0.5727220948 -0.6728681941
-0.4289268147 0.0829589780 -0.0800087125 -0.4682283583 -0.5727220948 -0.6728681941
-0.4213353659 0.0993143194 -0.0983993648 -0.5334903578 -0.3944978349 -0.7481707669
-0.4216740705 0.0986687311 -0.0978174404 -0.5334903578 -0.3944978349 -0.7481707669
-0.4220127751 0.0980231429 -0.0972355160 -0.5334903578 -0.3944978349 -0.7481707669
-0.4223514796 0.0973775546 -0.0966535916 -0.5334903578 -0.3944978349 -0.7481707669
-0.4226901842 0.0967319663 -0.0960716672 -0.4682283583 -0.5727220948 -0.6728681941
-0.4172958160 0.1077625485 -0.1074628774 -0.5720850552 -0.4570799723 -0.6810261291
-0.4183057035 0.1056504912 -0.1051969993 -0.5720850552 -0.4570799723 -0.6810261291
-0.4193155910 0.1035384339 -0.1029311211 -0.5720850552 -0.4570799723 -0.6810261291
-0.4203254785 0.1014263767 -0.1006652430 -0.5720850552 -0.4570799723 -0.6810261291
-0.4213353659 0.0993143194 -0.0983993648 -0.5334903578 -0.3944978349 -0.7481707669
-0.4167985682 0.1087595317 -0.1084567385 -0.4577997679 -0.6052882573 -0.6511877595
-0.4169228802 0.1085102859 -0.1082082732 -0.4349079800 -0.5176168542 -0.7368363734
-0.4170471921 0.1082610401 -0.1079598079 -0.4349079800 -0.5176168542 -0.7368363734
-0.4171715041 0.1080117943 -0.1077113427 -0.4349079800 -0.5176168542 -0.7368363734
-0.4172958160 0.1077625485 -0.1074628774 -0.5720850552 -0.4570799723 -0.6810261291
-0.4166276018 0.1091532516 -0.1089429000 -0.6305644420 -0.3293128482 -0.7028097414
-0.4166703434 0.1090548216 -0.1088213596 -0.4577997679 -0.6052882573 -0.6511877595
-0.4167130850 0.1089563917 -0.1086998193 -0.4577997679 -0.6052882573 -0.6511877595
-0.4167558266 0.1088579617 -0.1085782789 -0.4577997679 -0.6052882573 -0.6511877595
-0.4167985682 0.1087595317 -0.1084567385 -0.4577997679 -0.6052882573 -0.6511877595
-0.4159942627 0.1103797503 -0.1100858313 -0.6305644420 -0.3293128482 -0.7028097414
-0.4161525975 0.1100731256 -0.1098000985 -0.6305644420 -0.3293128482 -0.7028097414
-0.4163109323 0.1097665010 -0.1095143656 -0.6305644420 -0.3293128482 -0.7028097414
-0.4164692671 0.1094598763 -0.1092286328 -0.6305644420 -0.3293128482 -0.7028097414
-0.4166276018 0.1091532516 -0.1089429000 -0.6305644420 -0.3293128482 -0.7028097414
-0.4053030077 0.1303524852 -0.1273047571 -0.7795825238 0.0453781567 -0.6246534331
-0.4079758214 0.1253593015 -0.1230000256 -0.7686309166 -0.1287622249 -0.6265993964
-0.4106486352 0.1203661178 -0.1186952942 -0.7686309166 -0.1287622249 -0.6265993964
-0.4133214490 0.1153729340 -0.1143905627 -0.7686309166 -0.1287622249 -0.6265993964
-0.4159942627 0.1103797503 -0.1100858313 -0.6305644420 -0.3293128482 -0.7028097414
-0.3980489442 0.1426614976 -0.1354638188 -0.7795825238 0.0453781567 -0.6246534331
-0.3998624601 0.1395842445 -0.1334240534 -0.7795825238 0.0453781567 -0.6246534331
-0.4016759760 0.1365069914 -0.1313842879 -0.7795825238 0.0453781567 -0.6246534331
-0.4034894918 0.1334297383 -0.1293445225 -0.7795825238 0.0453781567 -0.6246534331
-0.4053030077 0.1303524852 -0.1273047571 -0.7795825238 0.0453781567 -0.6246534331
-0.3967662345 0.1447045160 -0.1365278262 -0.6514963015 0.0140026095 -0.7585225745
-0.3970869120 0.1441937614 -0.1362618243 -0.6514963015 0.0140026095 -0.7585225745
-0.3974075894 0.1436830068 -0.1359958225 -0.6514963015 0.0140026095 -0.7585225745
-0.3977282668 0.1431722522 -0.1357298206 -0.6514963015 0.0140026095 -0.7585225745
-0.3980489442 0.1426614976 -0.1354638188 -0.7795825238 0.0453781567 -0.6246534331
-0.3906842061 0.1528851843 -0.1373005839 -0.7748884270 0.3421307138 -0.5315021169
-0.3922047132 0.1508400172 -0.1371073945 -0.6947301045 0.4646416521 -0.5490521078
-0.3937252203 0.1487948501 -0.1369142050 -0.6947301045 0.4646416521 -0.5490521078
-0.3952457274 0.1467496831 -0.1367210156 -0.6947301045 0.4646416521 -0.5490521078
-0.3967662345 0.1447045160 -0.1365278262 -0.6514963015 0.0140026095 -0.7585225745
-0.3737794625 0.1778821857 -0.1458556554 -0.7311457751 0.1674445368 -0.6613532964
-0.3780056484 0.1716329354 -0.1437168875 -0.7748884270 0.3421307138 -0.5315021169
-0.3822318343 0.1653836850 -0.1415781196 -0.7748884270 0.3421307138 -0.5315021169
-0.3864580202 0.1591344346 -0.1394393518 -0.7748884270 0.3421307138 -0.5315021169
-0.3906842061 0.1528851843 -0.1373005839 -0.7748884270 0.3421307138 -0.5315021169
-0.3737671003 0.1779013663 -0.1458644659 -0.6979421592 -0.1563751649 -0.6988730573
-0.3737701909 0.1778965711 -0.1458622632 -0.7311457751 0.1674445368 -0.6613532964
-0.3737732814 0.1778917760 -0.1458600606 -0.7311457751 0.1674445368 -0.6613532964
-0.3737763719 0.1778869809 -0.1458578580 -0.7311457751 0.1674445368 -0.6613532964
-0.3737794625 0.1778821857 -0.1458556554 -0.7311457751 0.1674445368 -0.6613532964
-0.3737616316 0.1779111766 -0.1458721224 -0.7688744459 -0.3133562327 -0.5573508391
-0.3737629988 0.1779087240 -0.1458702082 -0.6979421592 -0.1563751649 -0.6988730573
-0.3737643660 0.1779062714 -0.1458682941 -0.6979421592 -0.1563751649 -0.6988730573
-0.3737657332 0.1779038189 -0.1458663800 -0.6979421592 -0.1563751649 -0.6988730573
-0.3737671003 0.1779013663 -0.1458644659 -0.6979421592 -0.1563751649 -0.6988730573
-0.3702224119 0.1857980971 -0.1551887523 -0.7688744459 -0.3133562327 -0.5573508391
-0.3711072168 0.1838263670 -0.1528595948 -0.7688744459 -0.3133562327 -0.5573508391
-0.3719920217 0.1818546369 -0.1505304373 -0.7688744459 -0.3133562327 -0.5573508391
-0.3728768267 0.1798829068 -0.1482012799 -0.7688744459 -0.3133562327 -0.5573508391
-0.3737616316 0.1779111766 -0.1458721224 -0.7688744459 -0.3133562327 -0.5573508391
-0.3696536450 0.1868103831 -0.1559622768 -0.8031980307 -0.0039075910 -0.5956992985
-0.3697958367 0.1865573116 -0.1557688956 -0.8031980307 -0.0039075910 -0.5956992985
-0.3699380284 0.1863042401 -0.1555755145 -0.8031980307 -0.0039075910 -0.5956992985
-0.3700802201 0.1860511686 -0.1553821334 -0.8031980307 -0.0039075910 -0.5956992985
-0.3702224119 0.1857980971 -0.1551887523 -0.7688744459 -0.3133562327 -0.5573508391
-0.3686793905 0.1885352584 -0.1572614738 -0.7611558159 -0.0246839775 -0.6480991631
-0.3689229541 0.1881040396 -0.1569366745 -0.7995204151 -0.0008169079 -0.6006383591
-0.3691665177 0.1876728207 -0.1566118753 -0.7995204151 -0.0008169079 -0.6006383591
-0.3694100814 0.1872416019 -0.1562870760 -0.7995204151 -0.0008169079 -0.6006383591
-0.3696536450 0.1868103831 -0.1559622768 -0.8031980307 -0.0039075910 -0.5956992985
-0.3627410463 0.1988543154 -0.1646287476 -0.5118595675 0.1009399621 -0.8531183431
-0.3642256324 0.1962745512 -0.1627869292 -0.7611558159 -0.0246839775 -0.6480991631
-0.3657102184 0.1936947869 -0.1609451107 -0.7611558159 -0.0246839775 -0.6480991631
-0.3671948044 0.1911150226 -0.1591032923 -0.7611558159 -0.0246839775 -0.6480991631
-0.3686793905 0.1885352584 -0.1572614738 -0.7611558159 -0.0246839775 -0.6480991631
-0.3559320580 0.2087359622 -0.1675448635 -0.4827965428 -0.0222590474 -0.8754496177
-0.3576343051 0.2062655505 -0.1668158345 -0.5118595675 0.1009399621 -0.8531183431
-0.3593365522 0.2037951388 -0.1660868056 -0.5118595675 0.1009399621 -0.8531183431
-0.3610387993 0.2013247271 -0.1653577766 -0.5118595675 0.1009399621 -0.8531183431
-0.3627410463 0.1988543154 -0.1646287476 -0.5118595675 0.1009399621 -0.8531183431
-0.3489041625 0.2193356442 -0.1716901391 -0.2476040241 0.0306110615 -0.9683776175
-0.3506611363 0.2166857237 -0.1706538202 -0.4827965428 -0.0222590474 -0.8754496177
-0.3524181102 0.2140358032 -0.1696175013 -0.4827965428 -0.0222590474 -0.8754496177
-0.3541750841 0.2113858827 -0.1685811824 -0.4827965428 -0.0222590474 -0.8754496177
-0.3559320580 0.2087359622 -0.1675448635 -0.4827965428 -0.0222590474 -0.8754496177
-0.3394744642 0.2323022862 -0.1736913353 -0.2815301997 -0.0487083307 -0.9583153161
-0.3418318888 0.2290606257 -0.1731910362 -0.2476040241 0.0306110615 -0.9683776175
-0.3441893133 0.2258189652 -0.1726907372 -0.2476040241 0.0306110615 -0.9683776175
-0.3465467379 0.2225773047 -0.1721904381 -0.2476040241 0.0306110615 -0.9683776175
-0.3489041625 0.2193356442 -0.1716901391 -0.2476040241 0.0306110615 -0.9683776175
-0.3359811896 0.2372957790 -0.1749713778 -0.1210540626 0.0772212258 -0.9896377096
-0.3368545083 0.2360474058 -0.1746513671 -0.2815301997 -0.0487083307 -0.9583153161
-0.3377278269 0.2347990326 -0.1743313565 -0.2815301997 -0.0487083307 -0.9583153161
-0.3386011456 0.2335506594 -0.1740113459 -0.2815301997 -0.0487083307 -0.9583153161
-0.3394744642 0.2323022862 -0.1736913353 -0.2815301997 -0.0487083307 -0.9583153161
-0.3295666837 0.2456822042 -0.1751016226 -0.1210540626 0.0772212258 -0.9896377096
-0.3311703102 0.2435855979 -0.1750690614 -0.1210540626 0.0772212258 -0.9896377096
-0.3327739367 0.2414889916 -0.1750365002 -0.1210540626 0.0772212258 -0.9896377096
-0.3343775631 0.2393923853 -0.1750039390 -0.1210540626 0.0772212258 -0.9896377096
-0.3359811896 0.2372957790 -0.1749713778 -0.1210540626 0.0772212258 -0.9896377096
-0.3270492367 0.2490677379 -0.1754198533 -0.1243809935 -0.0007788086 -0.9922342273
-0.3276785984 0.2482213544 -0.1753402956 -0.1243809935 -0.0007788086 -0.9922342273
-0.3283079602 0.2473749710 -0.1752607379 -0.1243809935 -0.0007788086 -0.9922342273
-0.3289373219 0.2465285876 -0.1751811803 -0.1243809935 -0.0007788086 -0.9922342273
-0.3295666837 0.2456822042 -0.1751016226 -0.1210540626 0.0772212258 -0.9896377096
-0.3242319286 0.2530562709 -0.1763424634 0.0258284817 -0.1036965812 -0.9942735582
-0.3249362557 0.2520591376 -0.1761118109 -0.2456601702 -0.0504023057 -0.9680447760
-0.3256405827 0.2510620044 -0.1758811583 -0.2456601702 -0.0504023057 -0.9680447760
-0.3263449097 0.2500648711 -0.1756505058 -0.2456601702 -0.0504023057 -0.9680447760
-0.3270492367 0.2490677379 -0.1754198533 -0.1243809935 -0.0007788086 -0.9922342273
-0.3208343391 0.2576103575 -0.1767291632 -0.0001130582 -0.1542434143 -0.9880328721
-0.3216837365 0.2564718358 -0.1766324883 0.0258284817 -0.1036965812 -0.9942735582
-0.3225331339 0.2553333142 -0.1765358133 0.0258284817 -0.1036965812 -0.9942735582
-0.3233825313 0.2541947925 -0.1764391384 0.0258284817 -0.1036965812 -0.9942735582
-0.3242319286 0.2530562709 -0.1763424634 0.0258284817 -0.1036965812 -0.9942735582
-0.3197263587 0.2591349838 -0.1769673037 -0.0195543964 0.0336946098 -0.9992408613
-0.3200033538 0.2587538272 -0.1769077686 -0.0001130582 -0.1542434143 -0.9880328721
-0.3202803489 0.2583726706 -0.1768482335 -0.0001130582 -0.1542434143 -0.9880328721
-0.3205573440 0.2579915141 -0.1767886984 -0.0001130582 -0.1542434143 -0.9880328721
-0.3208343391 0.2576103575 -0.1767291632 -0.0001130582 -0.1542434143 -0.9880328721
-0.3105195411 0.2710283287 -0.1767464383 -0.0195543964 0.0336946098 -0.9992408613
-0.3128212455 0.2680549924 -0.1768016547 -0.0195543964 0.0336946098 -0.9992408613
-0.3151229499 0.2650816562 -0.1768568710 -0.0195543964 0.0336946098 -0.9992408613
-0.3174246543 0.2621083200 -0.1769120874 -0.0195543964 0.0336946098 -0.9992408613
-0.3197263587 0.2591349838 -0.1769673037 -0.0195543964 0.0336946098 -0.9992408613
-0.3050172252 0.2788039559 -0.1785082361 -0.1689021255 -0.1025897861 -0.9802792499
-0.3063928042 0.2768600491 -0.1780677866 -0.1689021255 -0.1025897861 -0.9802792499
-0.3077683832 0.2749161423 -0.1776273372 -0.1689021255 -0.1025897861 -0.9802792499
-0.3091439621 0.2729722355 -0.1771868877 -0.1689021255 -0.1025897861 -0.9802792499
-0.3105195411 0.2710283287 -0.1767464383 -0.0195543964 0.0336946098 -0.9992408613
-0.3029831630 0.2818462317 -0.1796355068 -0.1855774562 0.0377876516 -0.9819027962
-0.3034916785 0.2810856628 -0.1793536891 -0.3238388877 -0.1306908102 -0.9370423080
-0.3040001941 0.2803250938 -0.1790718714 -0.3238388877 -0.1306908102 -0.9370423080
-0.3045087097 0.2795645249 -0.1787900537 -0.3238388877 -0.1306908102 -0.9370423080
-0.3050172252 0.2788039559 -0.1785082361 -0.1689021255 -0.1025897861 -0.9802792499
-0.2972972832 0.2895141905 -0.1804150293 -0.1855774562 0.0377876516 -0.9819027962
-0.2987187531 0.2875972008 -0.1802201487 -0.1855774562 0.0377876516 -0.9819027962
-0.3001402231 0.2856802111 -0.1800252680 -0.1855774562 0.0377876516 -0.9819027962
-0.3015616930 0.2837632214 -0.1798303874 -0.1855774562 0.0377876516 -0.9819027962
-0.3029831630 0.2818462317 -0.1796355068 -0.1855774562 0.0377876516 -0.9819027962
-0.2926230553 0.2960767807 -0.1817902386 -0.0609350133 0.0601693864 -0.9963265374
-0.2937916123 0.2944361332 -0.1814464363 -0.0870349270 -0.1445576968 -0.9856611962
-0.2949601693 0.2927954856 -0.1811026340 -0.0870349270 -0.1445576968 -0.9856611962
-0.2961287262 0.2911548380 -0.1807588317 -0.0870349270 -0.1445576968 -0.9856611962
-0.2972972832 0.2895141905 -0.1804150293 -0.1855774562 0.0377876516 -0.9819027962
-0.2894891712 0.3001328450 -0.1817369542 -0.0609350133 0.0601693864 -0.9963265374
-0.2902726422 0.2991188289 -0.1817502753 -0.0609350133 0.0601693864 -0.9963265374
-0.2910561133 0.2981048128 -0.1817635964 -0.0609350133 0.0601693864 -0.9963265374
-0.2918395843 0.2970907968 -0.1817769175 -0.0609350133 0.0601693864 -0.9963265374
-0.2926230553 0.2960767807 -0.1817902386 -0.0609350133 0.0601693864 -0.9963265374
-0.2853621074 0.3042886568 -0.1783040722 0.3987003793 0.3153975693 -0.8611401633
-0.2863938734 0.3032497039 -0.1791622927 0.3987003793 0.3153975693 -0.8611401633
-0.2874256393 0.3022107509 -0.1800205132 0.3987003793 0.3153975693 -0.8611401633
-0.2884574053 0.3011717979 -0.1808787337 0.3987003793 0.3153975693 -0.8611401633
-0.2894891712 0.3001328450 -0.1817369542 -0.0609350133 0.0601693864 -0.9963265374
-0.2812012904 0.3093058180 -0.1771895831 -0.0500538417 -0.1257476251 -0.9907987423
-0.2822414946 0.3080515277 -0.1774682054 0.2676581400 -0.0079506844 -0.9634811398
-0.2832816989 0.3067972374 -0.1777468276 0.2676581400 -0.0079506844 -0.9634811398
-0.2843219032 0.3055429471 -0.1780254499 0.2676581400 -0.0079506844 -0.9634811398
-0.2853621074 0.3042886568 -0.1783040722 0.3987003793 0.3153975693 -0.8611401633
-0.2775087447 0.3144008497 -0.1780227588 0.0198726957 -0.0121245095 -0.9997289994
-0.2784318812 0.3131270918 -0.1778144649 -0.0500538417 -0.1257476251 -0.9907987423
-0.2793550176 0.3118533339 -0.1776061709 -0.0500538417 -0.1257476251 -0.9907987423
-0.2802781540 0.3105795759 -0.1773978770 -0.0500538417 -0.1257476251 -0.9907987423
-0.2812012904 0.3093058180 -0.1771895831 -0.0500538417 -0.1257476251 -0.9907987423
-0.2684559307 0.3261586578 -0.1779854087 0.0198726957 -0.0121245095 -0.9997289994
-0.2707191342 0.3232192057 -0.1779947462 0.0198726957 -0.0121245095 -0.9997289994
-0.2729823377 0.3202797537 -0.1780040838 0.0198726957 -0.0121245095 -0.9997289994
-0.2752455412 0.3173403017 -0.1780134213 0.0198726957 -0.0121245095 -0.9997289994
-0.2775087447 0.3144008497 -0.1780227588 0.0198726957 -0.0121245095 -0.9997289994
-0.2655257446 0.3302235298 -0.1787082692 -0.0866709872 -0.0004664540 -0.9962368807
-0.2662582911 0.3292073118 -0.1785275541 -0.1567743394 -0.0622708282 -0.9856693921
-0.2669908376 0.3281910938 -0.1783468390 -0.1567743394 -0.0622708282 -0.9856693921
-0.2677233841 0.3271748758 -0.1781661239 -0.1567743394 -0.0622708282 -0.9856693921
-0.2684559307 0.3261586578 -0.1779854087 0.0198726957 -0.0121245095 -0.9997289994
-0.2601200651 0.3374193069 -0.1791819213 -0.0866709872 -0.0004664540 -0.9962368807
-0.2614714850 0.3356203626 -0.1790635083 -0.0866709872 -0.0004664540 -0.9962368807
-0.2628229049 0.3338214183 -0.1789450952 -0.0866709872 -0.0004664540 -0.9962368807
-0.2641743247 0.3320224740 -0.1788266822 -0.0866709872 -0.0004664540 -0.9962368807
-0.2655257446 0.3302235298 -0.1787082692 -0.0866709872 -0.0004664540 -0.9962368807
-0.2591387808 0.3387710190 -0.1793968715 -0.0845765767 -0.0963110274 -0.9917514753
-0.2593841019 0.3384330910 -0.1793431340 -0.0845765767 -0.0963110274 -0.9917514753
-0.2596294230 0.3380951629 -0.1792893964 -0.0845765767 -0.0963110274 -0.9917514753
-0.2598747441 0.3377572349 -0.1792356588 -0.0845765767 -0.0963110274 -0.9917514753
-0.2601200651 0.3374193069 -0.1791819213 -0.0866709872 -0.0004664540 -0.9962368807
-0.2556836738 0.3432692162 -0.1794129602 -0.0217902251 0.0131623171 -0.9996759172
-0.2565474505 0.3421446669 -0.1794089381 -0.0217902251 0.0131623171 -0.9996759172
-0.2574112273 0.3410201176 -0.1794049159 -0.0217902251 0.0131623171 -0.9996759172
-0.2582750041 0.3398955683 -0.1794008937 -0.0217902251 0.0131623171 -0.9996759172
-0.2591387808 0.3387710190 -0.1793968715 -0.0845765767 -0.0963110274 -0.9917514753
-0.2498294290 0.3505644808 -0.1785146193 0.1891665021 -0.0309430150 -0.9814573675
-0.2512929902 0.3487406646 -0.1787392046 0.1891665021 -0.0309430150 -0.9814573675
-0.2527565514 0.3469168485 -0.1789637898 0.1891665021 -0.0309430150 -0.9814573675
-0.2542201126 0.3450930323 -0.1791883750 0.1891665021 -0.0309430150 -0.9814573675
-0.2556836738 0.3432692162 -0.1794129602 -0.0217902251 0.0131623171 -0.9996759172
-0.2457343424 0.3561520049 -0.1792601203 -0.0217499108 -0.0796228606 -0.9965877490
-0.2467581141 0.3547551239 -0.1790737451 -0.0312414313 -0.1096557071 -0.9934785347
-0.2477818857 0.3533582428 -0.1788873698 -0.0312414313 -0.1096557071 -0.9934785347
-0.2488056574 0.3519613618 -0.1787009946 -0.0312414313 -0.1096557071 -0.9934785347
-0.2498294290 0.3505644808 -0.1785146193 0.1891665021 -0.0309430150 -0.9814573675
-0.2391067269 0.3650718836 -0.1801174147 -0.0139152118 -0.0738019312 -0.9971758330
-0.2407636308 0.3628419139 -0.1799030911 -0.0217499108 -0.0796228606 -0.9965877490
-0.2424205347 0.3606119442 -0.1796887675 -0.0217499108 -0.0796228606 -0.9965877490
-0.2440774385 0.3583819746 -0.1794744439 -0.0217499108 -0.0796228606 -0.9965877490
-0.2457343424 0.3561520049 -0.1792601203 -0.0217499108 -0.0796228606 -0.9965877490
-0.2259479575 0.3827066001 -0.1816062051 -0.0536742597 0.0063961929 -0.9985380126
-0.2292376498 0.3782979210 -0.1812340075 -0.0139152118 -0.0738019312 -0.9971758330
-0.2325273422 0.3738892418 -0.1808618099 -0.0139152118 -0.0738019312 -0.9971758330
-0.2358170346 0.3694805627 -0.1804896123 -0.0139152118 -0.0738019312 -0.9971758330
-0.2391067269 0.3650718836 -0.1801174147 -0.0139152118 -0.0738019312 -0.9971758330
-0.2215196874 0.3885352507 -0.1818069007 -0.0536742597 0.0063961929 -0.9985380126
-0.2226267549 0.3870780880 -0.1817567268 -0.0536742597 0.0063961929 -0.9985380126
-0.2237338224 0.3856209254 -0.1817065529 -0.0536742597 0.0063961929 -0.9985380126
-0.2248408899 0.3841637628 -0.1816563790 -0.0536742597 0.0063961929 -0.9985380126
-0.2259479575 0.3827066001 -0.1816062051 -0.0536742597 0.0063961929 -0.9985380126
-0.2194986951 0.3910538312 -0.1814971226 -0.1469585969 0.0392312836 -0.9883643443
-0.2200039432 0.3904241860 -0.1815745671 -0.0215879236 0.1390967009 -0.9900434684
-0.2205091912 0.3897945409 -0.1816520116 -0.0215879236 0.1390967009 -0.9900434684
-0.2210144393 0.3891648958 -0.1817294562 -0.0215879236 0.1390967009 -0.9900434684
-0.2215196874 0.3885352507 -0.1818069007 -0.0536742597 0.0063961929 -0.9985380126
-0.2097750629 0.4040252825 -0.1824280354 -0.1469585969 0.0392312836 -0.9883643443
-0.2122059709 0.4007824197 -0.1821953072 -0.1469585969 0.0392312836 -0.9883643443
-0.2146368790 0.3975395568 -0.1819625790 -0.1469585969 0.0392312836 -0.9883643443
-0.2170677871 0.3942966940 -0.1817298508 -0.1469585969 0.0392312836 -0.9883643443
-0.2194986951 0.3910538312 -0.1814971226 -0.1469585969 0.0392312836 -0.9883643443
-0.2091137419 0.4048564712 -0.1823466453 -0.1400821583 0.1512240923 -0.9785235117
-0.2092790722 0.4046486740 -0.1823669928 -0.1026766103 0.1775321060 -0.9787440243
-0.2094444024 0.4044408769 -0.1823873403 -0.1026766103 0.1775321060 -0.9787440243
-0.2096097326 0.4042330797 -0.1824076879 -0.1026766103 0.1775321060 -0.9787440243
-0.2097750629 0.4040252825 -0.1824280354 -0.1469585969 0.0392312836 -0.9883643443
-0.2001498883 0.4163385658 -0.1818554018 -0.1400821583 0.1512240923 -0.9785235117
-0.2023908517 0.4134680422 -0.1819782127 -0.1400821583 0.1512240923 -0.9785235117
-0.2046318151 0.4105975185 -0.1821010236 -0.1400821583 0.1512240923 -0.9785235117
-0.2068727785 0.4077269949 -0.1822238344 -0.1400821583 0.1512240923 -0.9785235117
-0.2091137419 0.4048564712 -0.1823466453 -0.1400821583 0.1512240923 -0.9785235117
-0.1968185459 0.4208388058 -0.1823336836 -0.0246873751 0.1294168803 -0.9912829085
-0.1976513815 0.4197137458 -0.1822141132 -0.1445473974 0.0018396218 -0.9894961676
-0.1984842171 0.4185886858 -0.1820945427 -0.1445473974 0.0018396218 -0.9894961676
-0.1993170527 0.4174636258 -0.1819749723 -0.1445473974 0.0018396218 -0.9894961676
-0.2001498883 0.4163385658 -0.1818554018 -0.1400821583 0.1512240923 -0.9785235117
-0.1929637954 0.4256627566 -0.1817998963 -0.1310637575 0.1162534861 -0.9845341124
-0.1939274830 0.4244567689 -0.1819333431 -0.0246873751 0.1294168803 -0.9912829085
-0.1948911706 0.4232507812 -0.1820667900 -0.0246873751 0.1294168803 -0.9912829085
-0.1958548583 0.4220447935 -0.1822002368 -0.0246873751 0.1294168803 -0.9912829085
-0.1968185459 0.4208388058 -0.1823336836 -0.0246873751 0.1294168803 -0.9912829085
-0.1857261603 0.4350235304 -0.1816580749 -0.1784765084 0.0444661843 -0.9829389068
-0.1875355691 0.4326833369 -0.1816935302 -0.1310637575 0.1162534861 -0.9845341124
-0.1893449778 0.4303431435 -0.1817289856 -0.1310637575 0.1162534861 -0.9845341124
-0.1911543866 0.4280029500 -0.1817644410 -0.1310637575 0.1162534861 -0.9845341124
-0.1929637954 0.4256627566 -0.1817998963 -0.1310637575 0.1162534861 -0.9845341124
-0.1781192796 0.4452385003 -0.1825771835 -0.1784765084 0.0444661843 -0.9829389068
-0.1800209998 0.4426847578 -0.1823474063 -0.1784765084 0.0444661843 -0.9829389068
-0.1819227200 0.4401310153 -0.1821176292 -0.1784765084 0.0444661843 -0.9829389068
-0.1838244402 0.4375772729 -0.1818878520 -0.1784765084 0.0444661843 -0.9829389068
-0.1857261603 0.4350235304 -0.1816580749 -0.1784765084 0.0444661843 -0.9829389068
-0.1749148697 0.4496644181 -0.1833127622 -0.0708033358 0.0144384635 -0.9973857922
-0.1757159721 0.4485579386 -0.1831288675 -0.1545601245 -0.0520704076 -0.9866102780
-0.1765170746 0.4474514592 -0.1829449729 -0.1545601245 -0.0520704076 -0.9866102780
-0.1773181771 0.4463449797 -0.1827610782 -0.1545601245 -0.0520704076 -0.9866102780
-0.1781192796 0.4452385003 -0.1825771835 -0.1784765084 0.0444661843 -0.9829389068
-0.1643540761 0.4635894215 -0.1838608823 -0.0708033358 0.0144384635 -0.9973857922
-0.1669942745 0.4601081707 -0.1837238523 -0.0708033358 0.0144384635 -0.9973857922
-0.1696344729 0.4566269198 -0.1835868223 -0.0708033358 0.0144384635 -0.9973857922
-0.1722746713 0.4531456689 -0.1834497922 -0.0708033358 0.0144384635 -0.9973857922
-0.1749148697 0.4496644181 -0.1833127622 -0.0708033358 0.0144384635 -0.9973857922
-0.1626568301 0.4655112728 -0.1830525874 -0.2129928291 0.5326088666 -0.8191226098
-0.1630811416 0.4650308100 -0.1832546611 -0.2129928291 0.5326088666 -0.8191226098
-0.1635054531 0.4645503472 -0.1834567348 -0.2129928291 0.5326088666 -0.8191226098
-0.1639297646 0.4640698843 -0.1836588086 -0.2129928291 0.5326088666 -0.8191226098
-0.1643540761 0.4635894215 -0.1838608823 -0.0708033358 0.0144384635 -0.9973857922
-0.1594193563 0.4692212054 -0.1816356414 -0.2258097217 0.5132852160 -0.8279784156
-0.1602287248 0.4682937222 -0.1819898779 -0.2258097217 0.5132852160 -0.8279784156
-0.1610380932 0.4673662391 -0.1823441144 -0.2258097217 0.5132852160 -0.8279784156
-0.1618474616 0.4664387559 -0.1826983509 -0.2258097217 0.5132852160 -0.8279784156
-0.1626568301 0.4655112728 -0.1830525874 -0.2129928291 0.5326088666 -0.8191226098
-0.1542907423 0.4749695851 -0.1790260644 -0.1442462787 0.4410079006 -0.8858357876
-0.1555728958 0.4735324902 -0.1796784586 -0.1257594450 0.5009331365 -0.8563005049
-0.1568550493 0.4720953952 -0.1803308529 -0.1257594450 0.5009331365 -0.8563005049
-0.1581372028 0.4706583003 -0.1809832471 -0.1257594450 0.5009331365 -0.8563005049
-0.1594193563 0.4692212054 -0.1816356414 -0.2258097217 0.5132852160 -0.8279784156
-0.1530803991 0.4763674542 -0.1785272330 -0.1765161735 0.7347950185 -0.6549185609
-0.1533829849 0.4760179869 -0.1786519408 -0.1442462787 0.4410079006 -0.8858357876
-0.1536855707 0.4756685196 -0.1787766487 -0.1442462787 0.4410079006 -0.8858357876
-0.1539881565 0.4753190524 -0.1789013565 -0.1442462787 0.4410079006 -0.8858357876
-0.1542907423 0.4749695851 -0.1790260644 -0.1442462787 0.4410079006 -0.8858357876
-0.1440105140 0.4854353051 -0.1707979748 -0.1765161735 0.7347950185 -0.6549185609
-0.1462779853 0.4831683424 -0.1727302893 -0.1765161735 0.7347950185 -0.6549185609
-0.1485454566 0.4809013797 -0.1746626039 -0.1765161735 0.7347950185 -0.6549185609
-0.1508129278 0.4786344169 -0.1765949184 -0.1765161735 0.7347950185 -0.6549185609
-0.1530803991 0.4763674542 -0.1785272330 -0.1765161735 0.7347950185 -0.6549185609
-0.1346619943 0.4938914777 -0.1603064384 -0.0974424474 0.8155128521 -0.5704767808
