-0.1950930 -0.4333333 -0.0292917
-0.1941354 -0.4333333 -0.0309322
-0.1937413 -0.4333333 -0.0327760
-0.1905621 -0.4333333 -0.0394867
-0.1902063 -0.4333333 -0.0452146
-0.1899227 -0.4333333 -0.0464659
-0.1895465 -0.4333333 -0.0469421
-0.1871704 -0.4333333 -0.0530200
-0.1823704 -0.4333333 -0.0597909
-0.1803266 -0.4333333 -0.0626615
-0.1795235 -0.4333333 -0.0637832
-0.1780307 -0.4333333 -0.0669090
0.4040312 -0.5000000 -0.1318866
0.3981158 -0.5000000 -0.1437869
0.3975286 -0.5000000 -0.1448101
0.3972015 -0.5000000 -0.1453078
0.3953220 -0.5000000 -0.1492253
0.3911689 -0.5000000 -0.1582966
0.3901809 -0.5000000 -0.1596152
0.3832493 -0.5000000 -0.1669664
0.3825542 -0.5000000 -0.1679105
0.3738000 -0.5000000 -0.1748229
0.3734091 -0.5000000 -0.1751431
0.3725654 -0.5000000 -0.1759590
0.3656658 -0.5000000 -0.1834749
0.3615633 -0.5000000 -0.1860463
0.3555313 -0.5000000 -0.1886966
0.3502802 -0.5000000 -0.1931975
0.3496288 -0.5000000 -0.1936883
0.3483920 -0.5000000 -0.1940440
0.3432848 -0.5000000 -0.1953450
0.3396789 -0.5000000 -0.1955019
0.3349381 -0.5000000 -0.1950498
0.3255100 -0.5000000 -0.1932467
0.3254881 -0.5000000 -0.1932434
0.3254658 -0.5000000 -0.1932481
0.3160517 -0.5000000 -0.1948233
0.3109434 -0.5000000 -0.1945502
0.3071073 -0.5000000 -0.1940867
0.3031619 -0.5000000 -0.1927852
0.2977920 -0.5000000 -0.1905875
0.2894315 -0.5000000 -0.1889428
0.2887804 -0.5000000 -0.1888365
0.2880594 -0.5000000 -0.1883771
0.2825433 -0.5000000 -0.1832760
0.2788685 -0.5000000 -0.1817595
0.2719009 -0.5000000 -0.1766440
0.2689839 -0.5000000 -0.1738261
0.2677438 -0.5000000 -0.1724397
0.2563613 -0.5000000 -0.1621852
0.2552585 -0.5000000 -0.1607876
0.2475611 -0.5000000 -0.1486469
0.2467232 -0.5000000 -0.1473802
0.2436723 -0.5000000 -0.1413382
0.2425472 -0.5000000 -0.1393360
0.2407276 -0.5000000 -0.1303359
0.2407257 -0.5000000 -0.1303330
0.2407230 -0.5000000 -0.1303272
0.2358553 -0.5000000 -0.1206562
0.2366289 -0.5000000 -0.1184680
0.2355699 -0.5000000 -0.1147732
0.2353373 -0.5000000 -0.1143478
0.2328068 -0.5000000 -0.1113788
0.2316947 -0.5000000 -0.1093233
0.2322023 -0.5000000 -0.1077310
0.2316988 -0.5000000 -0.1048783
0.2317931 -0.5000000 -0.1003079
0.2319582 -0.5000000 -0.0977928
0.2316371 -0.5000000 -0.0910299
0.2312298 -0.5000000 -0.0886364
0.2319687 -0.5000000 -0.0872589
0.2330020 -0.5000000 -0.0842423
0.2351795 -0.5000000 -0.0758429
0.2371258 -0.5000000 -0.0705779
0.2380740 -0.5000000 -0.0679424
0.2394795 -0.5000000 -0.0647184
0.2421381 -0.5000000 -0.0577724
0.2441613 -0.5000000 -0.0530549
0.2486861 -0.5000000 -0.0459165
0.2527765 -0.5000000 -0.0396375
0.2545010 -0.5000000 -0.0367591
0.2551205 -0.5000000 -0.0359307
0.2643885 -0.5000000 -0.0260086
0.2650917 -0.5000000 -0.0254128
0.2732691 -0.5000000 -0.0170045
0.2855993 -0.5000000 -0.0093407
0.2893177 -0.5000000 -0.0069133
0.2924525 -0.5000000 -0.0053953
0.3068340 -0.5000000 0.0007181
0.3091585 -0.5000000 0.0017785
0.3195154 -0.5000000 0.0040617
0.3226537 -0.5000000 0.0049296
0.3244635 -0.5000000 0.0051701
0.3347050 -0.5000000 0.0063474
0.3386773 -0.5000000 0.0063603
0.3469755 -0.5000000 0.0067287
0.3524413 -0.5000000 0.0069678
0.3637447 -0.5000000 0.0054685
0.3641282 -0.5000000 0.0053491
0.3647914 -0.5000000 0.0051627
0.3752018 -0.5000000 0.0039928
0.3784534 -0.5000000 0.0030351
0.3892846 -0.5000000 -0.0007656
0.3910923 -0.5000000 -0.0017398
0.3968787 -0.5000000 -0.0104493
0.3969930 -0.5000000 -0.0105633
0.3998596 -0.5000000 -0.0183138
0.4001811 -0.5000000 -0.0188101
0.4043973 -0.5000000 -0.0271932
0.4063054 -0.5000000 -0.0306242
0.4091681 -0.5000000 -0.0338547
0.4109049 -0.5000000 -0.0359481
0.4117360 -0.5000000 -0.0378393
0.4161025 -0.5000000 -0.0419666
0.4182947 -0.5000000 -0.0477943
0.4186658 -0.5000000 -0.0489582
0.4188574 -0.5000000 -0.0531614
0.4189170 -0.5000000 -0.0542327
0.4189288 -0.5000000 -0.0546530
0.4191580 -0.5000000 -0.0588695
0.4201401 -0.5000000 -0.0610175
0.4210024 -0.5000000 -0.0629963
0.4221615 -0.5000000 -0.0682112
0.4226342 -0.5000000 -0.0710410
0.4230300 -0.5000000 -0.0741383
0.4226858 -0.5000000 -0.0779355
0.4223243 -0.5000000 -0.0799751
0.4211126 -0.5000000 -0.0821230
0.4188149 -0.5000000 -0.0870456
0.4179616 -0.5000000 -0.0904463
0.4169818 -0.5000000 -0.0997333
0.4167643 -0.5000000 -0.1006242
0.4165864 -0.5000000 -0.1011411
0.4152819 -0.5000000 -0.1059071
0.4149893 -0.5000000 -0.1068515
0.4120597 -0.5000000 -0.1118642
0.4103539 -0.5000000 -0.1148076
0.4073024 -0.5000000 -0.1219252
0.4057789 -0.5000000 -0.1265472
-0.3655631 -0.5000000 -0.1068869
-0.3674799 -0.5000000 -0.0927311
-0.3683837 -0.5000000 -0.0884964
-0.3690833 -0.5000000 -0.0836733
-0.3704418 -0.5000000 -0.0710567
-0.3725918 -0.5000000 -0.0629080
-0.3755145 -0.5000000 -0.0556753
-0.3792363 -0.5000000 -0.0491456
-0.3809513 -0.5000000 -0.0459166
-0.3836437 -0.5000000 -0.0374682
-0.3837516 -0.5000000 -0.0371115
-0.3837553 -0.5000000 -0.0370269
-0.3837591 -0.5000000 -0.0364901
-0.3837887 -0.5000000 -0.0281468
-0.3836399 -0.5000000 -0.0269202
-0.3832746 -0.5000000 -0.0249168
-0.3813026 -0.5000000 -0.0167530
-0.3800933 -0.5000000 -0.0130844
-0.3779281 -0.5000000 -0.0089744
-0.3747596 -0.5000000 -0.0033357
-0.3703690 -0.5000000 0.0019967
-0.3678206 -0.5000000 0.0053171
-0.3651491 -0.5000000 0.0083558
-0.3607304 -0.5000000 0.0124907
-0.3564150 -0.5000000 0.0155423
-0.3518525 -0.5000000 0.0174169
-0.3483245 -0.5000000 0.0186911
-0.3456241 -0.5000000 0.0192963
-0.3406445 -0.5000000 0.0198977
-0.3373983 -0.5000000 0.0196690
-0.3308713 -0.5000000 0.0187600
-0.3296700 -0.5000000 0.0186372
-0.3278791 -0.5000000 0.0178762
-0.3223015 -0.5000000 0.0157139
-0.3154904 -0.5000000 0.0120182
-0.3114284 -0.5000000 0.0102537
-0.3008925 -0.5000000 0.0058150
-0.3004650 -0.5000000 0.0056093
-0.2996012 -0.5000000 0.0054787
-0.2906558 -0.5000000 0.0041329
-0.2787019 -0.5000000 0.0016516
-0.2785099 -0.5000000 0.0016062
-0.2783841 -0.5000000 0.0015733
-0.2629358 -0.5000000 -0.0044513
-0.2605791 -0.5000000 -0.0055681
-0.2486774 -0.5000000 -0.0136870
-0.2481206 -0.5000000 -0.0140666
-0.2479656 -0.5000000 -0.0142185
-0.2381299 -0.5000000 -0.0248754
-0.2304029 -0.5000000 -0.0334971
-0.2296659 -0.5000000 -0.0346767
-0.2282685 -0.5000000 -0.0361887
-0.2212053 -0.5000000 -0.0455490
-0.2175528 -0.5000000 -0.0517646
-0.2125256 -0.5000000 -0.0595608
-0.2103462 -0.5000000 -0.0631983
-0.2050163 -0.5000000 -0.0722769
-0.2028827 -0.5000000 -0.0761165
-0.1982964 -0.5000000 -0.0864533
-0.1977001 -0.5000000 -0.0889814
-0.1938982 -0.5000000 -0.1013235
-0.1937437 -0.5000000 -0.1017908
-0.1936834 -0.5000000 -0.1022064
-0.1935957 -0.5000000 -0.1036204
-0.1931743 -0.5000000 -0.1149471
-0.1937824 -0.5000000 -0.1263284
-0.1937028 -0.5000000 -0.1279265
-0.1936092 -0.5000000 -0.1288311
-0.1940315 -0.5000000 -0.1319337
-0.1962034 -0.5000000 -0.1475383
-0.1986316 -0.5000000 -0.1561226
-0.2002107 -0.5000000 -0.1629665
-0.2028101 -0.5000000 -0.1706600
-0.2036043 -0.5000000 -0.1728184
-0.2082195 -0.5000000 -0.1803648
-0.2093697 -0.5000000 -0.1827856
-0.2114855 -0.5000000 -0.1852472
-0.2159363 -0.5000000 -0.1906198
-0.2224959 -0.5000000 -0.1957878
-0.2235733 -0.5000000 -0.1966740
-0.2249357 -0.5000000 -0.1974690
-0.2320144 -0.5000000 -0.2010418
-0.2426487 -0.5000000 -0.2045271
-0.2438521 -0.5000000 -0.2048808
-0.2448785 -0.5000000 -0.2050490
-0.2572834 -0.5000000 -0.2069629
-0.2641704 -0.5000000 -0.2088281
-0.2670719 -0.5000000 -0.2088417
-0.2749968 -0.5000000 -0.2069462
-0.2773304 -0.5000000 -0.2067549
-0.2782662 -0.5000000 -0.2065584
-0.2796004 -0.5000000 -0.2059022
-0.2895958 -0.5000000 -0.2020046
-0.2930786 -0.5000000 -0.2003255
-0.2986717 -0.5000000 -0.1980907
-0.3096178 -0.5000000 -0.1909992
-0.3102166 -0.5000000 -0.1905966
-0.3222846 -0.5000000 -0.1816471
-0.3233071 -0.5000000 -0.1806856
-0.3335286 -0.5000000 -0.1722153
-0.3392576 -0.5000000 -0.1661607
-0.3402904 -0.5000000 -0.1648947
-0.3448162 -0.5000000 -0.1577266
-0.3484797 -0.5000000 -0.1519090
-0.3527196 -0.5000000 -0.1440758
-0.3545920 -0.5000000 -0.1409000
-0.3581126 -0.5000000 -0.1352218
-0.3603343 -0.5000000 -0.1296678
-0.3628251 -0.5000000 -0.1214973
-0.3637858 -0.5000000 -0.1165679
-0.1815205 -0.5666667 -0.2089602
-0.1847544 -0.5666667 -0.2168228
-0.1853390 -0.5666667 -0.2182071
-0.1857600 -0.5666667 -0.2189592
-0.1895919 -0.5666667 -0.2254184
-0.1962041 -0.5666667 -0.2331957
-0.1974128 -0.5666667 -0.2348301
-0.1984650 -0.5666667 -0.2362886
-0.2036939 -0.5666667 -0.2420732
-0.2045960 -0.5666667 -0.2428767
-0.2095695 -0.5666667 -0.2459693
-0.2135442 -0.5666667 -0.2502377
-0.2181641 -0.5666667 -0.2536164
-0.2246120 -0.5666667 -0.2560924
-0.2263363 -0.5666667 -0.2568480
-0.2276558 -0.5666667 -0.2571327
-0.2347611 -0.5666667 -0.2609076
-0.2371005 -0.5666667 -0.2619102
-0.2421113 -0.5666667 -0.2628781
-0.2466139 -0.5666667 -0.2631329
-0.2499931 -0.5666667 -0.2627796
-0.2552414 -0.5666667 -0.2635383
-0.2621180 -0.5666667 -0.2647637
-0.2661254 -0.5666667 -0.2651577
-0.2727074 -0.5666667 -0.2674502
-0.2754076 -0.5666667 -0.2680955
-0.2799064 -0.5666667 -0.2687881
-0.2844873 -0.5666667 -0.2687442
-0.2866868 -0.5666667 -0.2681455
-0.2918318 -0.5666667 -0.2667895
-0.2926675 -0.5666667 -0.2665247
-0.2930549 -0.5666667 -0.2664654
-0.2987638 -0.5666667 -0.2655415
-0.3013816 -0.5666667 -0.2653466
-0.3039080 -0.5666667 -0.2653273
-0.3054917 -0.5666667 -0.2646966
-0.3105694 -0.5666667 -0.2632991
-0.3139130 -0.5666667 -0.2621064
-0.3191217 -0.5666667 -0.2614836
-0.3255211 -0.5666667 -0.2587331
-0.3262163 -0.5666667 -0.2583655
-0.3269585 -0.5666667 -0.2578410
-0.3344993 -0.5666667 -0.2511385
-0.3394987 -0.5666667 -0.2474158
-0.3438875 -0.5666667 -0.2441876
-0.3502724 -0.5666667 -0.2368063
-0.3515611 -0.5666667 -0.2349797
-0.3525619 -0.5666667 -0.2338492
-0.3595124 -0.5666667 -0.2240881
-0.3612518 -0.5666667 -0.2212740
-0.3642047 -0.5666667 -0.2161735
-0.3650905 -0.5666667 -0.2132375
-0.3655615 -0.5666667 -0.2092295
-0.3699737 -0.5666667 -0.2002111
-0.3719278 -0.5666667 -0.1966336
-0.3729824 -0.5666667 -0.1928327
-0.3737362 -0.5666667 -0.1865405
-0.3738653 -0.5666667 -0.1840104
-0.3733218 -0.5666667 -0.1808434
-0.3736588 -0.5666667 -0.1727725
-0.3737149 -0.5666667 -0.1656063
-0.3736973 -0.5666667 -0.1649692
-0.3736625 -0.5666667 -0.1643241
-0.3728833 -0.5666667 -0.1595519
-0.3717680 -0.5666667 -0.1556501
-0.3713901 -0.5666667 -0.1544401
-0.3686315 -0.5666667 -0.1457852
-0.3683857 -0.5666667 -0.1450616
-0.3683386 -0.5666667 -0.1449275
-0.3683594 -0.5666667 -0.1446393
-0.3684544 -0.5666667 -0.1363328
-0.3698850 -0.5666667 -0.1326868
-0.3713525 -0.5666667 -0.1293231
-0.3740517 -0.5666667 -0.1233715
-0.3742915 -0.5666667 -0.1227626
-0.3744772 -0.5666667 -0.1219720
-0.3760005 -0.5666667 -0.1161786
-0.3775431 -0.5666667 -0.1093512
-0.3775612 -0.5666667 -0.1090496
-0.3775744 -0.5666667 -0.1088814
-0.3809160 -0.5666667 -0.1042872
-0.3810268 -0.5666667 -0.1039008
-0.3822860 -0.5666667 -0.0994804
-0.3818060 -0.5666667 -0.0966641
-0.3803433 -0.5666667 -0.0933792
-0.3792368 -0.5666667 -0.0918387
-0.3786683 -0.5666667 -0.0911137
-0.3773463 -0.5666667 -0.0889352
-0.3738900 -0.5666667 -0.0830996
-0.3730507 -0.5666667 -0.0800267
-0.3708521 -0.5666667 -0.0749521
-0.3689525 -0.5666667 -0.0703993
-0.3676385 -0.5666667 -0.0676847
-0.3597804 -0.5666667 -0.0600501
-0.3580671 -0.5666667 -0.0571897
-0.3566280 -0.5666667 -0.0544079
-0.3547144 -0.5666667 -0.0515609
-0.3538171 -0.5666667 -0.0508200
-0.3523276 -0.5666667 -0.0491621
-0.3488952 -0.5666667 -0.0456530
-0.3436879 -0.5666667 -0.0426270
-0.3421363 -0.5666667 -0.0418224
-0.3407524 -0.5666667 -0.0404287
-0.3339222 -0.5666667 -0.0345888
-0.3286845 -0.5666667 -0.0320045
-0.3247054 -0.5666667 -0.0293948
-0.3215771 -0.5666667 -0.0278659
-0.3174327 -0.5666667 -0.0250528
-0.3111486 -0.5666667 -0.0230812
-0.3091024 -0.5666667 -0.0221761
-0.3071034 -0.5666667 -0.0221980
-0.2979013 -0.5666667 -0.0231455
-0.2974846 -0.5666667 -0.0232238
-0.2966344 -0.5666667 -0.0230653
-0.2869341 -0.5666667 -0.0217186
-0.2820455 -0.5666667 -0.0227869
-0.2778110 -0.5666667 -0.0227123
-0.2705660 -0.5666667 -0.0256251
-0.2683747 -0.5666667 -0.0264501
-0.2646026 -0.5666667 -0.0278092
-0.2575199 -0.5666667 -0.0311538
-0.2470022 -0.5666667 -0.0377184
-0.2453760 -0.5666667 -0.0387583
-0.2421589 -0.5666667 -0.0394768
-0.2359535 -0.5666667 -0.0414605
-0.2317300 -0.5666667 -0.0437169
-0.2304918 -0.5666667 -0.0446919
-0.2266205 -0.5666667 -0.0496202
-0.2256993 -0.5666667 -0.0507073
-0.2226046 -0.5666667 -0.0535639
-0.2201943 -0.5666667 -0.0561146
-0.2196019 -0.5666667 -0.0566545
-0.2154804 -0.5666667 -0.0598968
-0.2124627 -0.5666667 -0.0623312
-0.2119972 -0.5666667 -0.0627744
-0.2103797 -0.5666667 -0.0649879
-0.2067687 -0.5666667 -0.0695957
-0.2042287 -0.5666667 -0.0722806
-0.2004536 -0.5666667 -0.0765077
-0.1986227 -0.5666667 -0.0789685
-0.1962416 -0.5666667 -0.0815065
-0.1911977 -0.5666667 -0.0874694
-0.1892781 -0.5666667 -0.0903460
-0.1878130 -0.5666667 -0.0916925
-0.1843210 -0.5666667 -0.0948928
-0.1791202 -0.5666667 -0.1001875
-0.1767240 -0.5666667 -0.1043541
-0.1748400 -0.5666667 -0.1084764
-0.1717148 -0.5666667 -0.1182378
-0.1713139 -0.5666667 -0.1193213
-0.1711369 -0.5666667 -0.1200992
-0.1707428 -0.5666667 -0.1233144
-0.1697050 -0.5666667 -0.1297668
-0.1689718 -0.5666667 -0.1327185
-0.1686273 -0.5666667 -0.1383257
-0.1685426 -0.5666667 -0.1442901
-0.1682852 -0.5666667 -0.1481431
-0.1689649 -0.5666667 -0.1542242
-0.1695871 -0.5666667 -0.1608900
-0.1695459 -0.5666667 -0.1624239
-0.1701406 -0.5666667 -0.1655703
-0.1704721 -0.5666667 -0.1683159
-0.1702947 -0.5666667 -0.1692500
-0.1698863 -0.5666667 -0.1723486
-0.1701248 -0.5666667 -0.1748620
-0.1696753 -0.5666667 -0.1795889
-0.1709740 -0.5666667 -0.1853186
-0.1724136 -0.5666667 -0.1917404
-0.1746203 -0.5666667 -0.1980692
-0.1782131 -0.5666667 -0.2042877
-0.1804559 -0.5666667 -0.2075092
0.2956151 -0.5666667 -0.2253445
0.2934007 -0.5666667 -0.2248993
0.2812453 -0.5666667 -0.2227575
0.2803172 -0.5666667 -0.2225236
0.2747929 -0.5666667 -0.2197751
0.2701736 -0.5666667 -0.2174940
0.2694603 -0.5666667 -0.2169815
0.2619883 -0.5666667 -0.2137353
0.2557966 -0.5666667 -0.2104362
0.2547640 -0.5666667 -0.2097163
0.2492296 -0.5666667 -0.2049251
0.2464136 -0.5666667 -0.2027907
0.2381888 -0.5666667 -0.1983765
0.2364876 -0.5666667 -0.1976063
0.2355675 -0.5666667 -0.1969052
0.2322423 -0.5666667 -0.1937476
0.2262107 -0.5666667 -0.1888020
0.2243560 -0.5666667 -0.1872111
0.2165923 -0.5666667 -0.1766504
0.2162840 -0.5666667 -0.1761045
0.2160960 -0.5666667 -0.1755708
0.2105779 -0.5666667 -0.1632169
0.2104716 -0.5666667 -0.1629792
0.2104691 -0.5666667 -0.1629674
0.2103608 -0.5666667 -0.1626380
0.2061260 -0.5666667 -0.1499403
0.2060547 -0.5666667 -0.1495779
0.2059606 -0.5666667 -0.1492297
0.2034410 -0.5666667 -0.1406332
0.2020671 -0.5666667 -0.1360007
0.2020113 -0.5666667 -0.1357249
0.2001943 -0.5666667 -0.1227379
0.1997560 -0.5666667 -0.1203735
0.1983630 -0.5666667 -0.1096769
0.1980365 -0.5666667 -0.1070072
0.1976649 -0.5666667 -0.1035345
0.1971090 -0.5666667 -0.1000281
0.1978101 -0.5666667 -0.0941888
0.1979631 -0.5666667 -0.0924688
0.1978849 -0.5666667 -0.0918528
0.1977440 -0.5666667 -0.0891117
0.1970151 -0.5666667 -0.0816464
0.1973025 -0.5666667 -0.0793539
0.1993336 -0.5666667 -0.0705569
0.1998709 -0.5666667 -0.0682322
0.2021314 -0.5666667 -0.0618272
0.2034958 -0.5666667 -0.0598368
0.2079240 -0.5666667 -0.0523749
0.2085575 -0.5666667 -0.0511606
0.2156352 -0.5666667 -0.0434353
0.2181943 -0.5666667 -0.0400248
0.2228786 -0.5666667 -0.0337979
0.2264909 -0.5666667 -0.0291562
0.2273600 -0.5666667 -0.0281587
0.2324313 -0.5666667 -0.0253953
0.2340027 -0.5666667 -0.0245962
0.2352188 -0.5666667 -0.0235840
0.2370568 -0.5666667 -0.0218609
0.2414818 -0.5666667 -0.0176772
0.2434539 -0.5666667 -0.0149892
0.2475905 -0.5666667 -0.0120022
0.2489021 -0.5666667 -0.0111439
0.2541031 -0.5666667 -0.0094763
0.2563211 -0.5666667 -0.0091205
0.2600444 -0.5666667 -0.0086987
0.2655690 -0.5666667 -0.0087172
0.2717212 -0.5666667 -0.0093297
0.2752617 -0.5666667 -0.0101054
0.2825110 -0.5666667 -0.0094927
0.2850611 -0.5666667 -0.0087859
0.2865175 -0.5666667 -0.0085924
0.2915410 -0.5666667 -0.0094721
0.2965891 -0.5666667 -0.0095315
0.3054125 -0.5666667 -0.0103381
0.3063980 -0.5666667 -0.0104086
0.3065521 -0.5666667 -0.0103875
0.3068496 -0.5666667 -0.0103233
0.3138241 -0.5666667 -0.0088085
0.3170867 -0.5666667 -0.0071364
0.3221251 -0.5666667 -0.0043411
0.3244819 -0.5666667 -0.0027288
0.3317455 -0.5666667 -0.0000936
0.3324446 -0.5666667 -0.0000079
0.3384492 -0.5666667 -0.0000309
0.3420757 -0.5666667 -0.0000682
0.3424819 -0.5666667 0.0000035
0.3504072 -0.5666667 0.0004611
0.3518799 -0.5666667 0.0002726
0.3567436 -0.5666667 -0.0007578
0.3627248 -0.5666667 -0.0030972
0.3639461 -0.5666667 -0.0036966
0.3645590 -0.5666667 -0.0040938
0.3674082 -0.5666667 -0.0063346
0.3725174 -0.5666667 -0.0104227
0.3736340 -0.5666667 -0.0104856
0.3801866 -0.5666667 -0.0122734
0.3808685 -0.5666667 -0.0122100
0.3823796 -0.5666667 -0.0123508
0.3862445 -0.5666667 -0.0137797
0.3890676 -0.5666667 -0.0155145
0.3933164 -0.5666667 -0.0211412
0.3934979 -0.5666667 -0.0214765
0.3935407 -0.5666667 -0.0215553
0.3935834 -0.5666667 -0.0216892
0.3990258 -0.5666667 -0.0302422
0.3994632 -0.5666667 -0.0310587
0.4002703 -0.5666667 -0.0319737
0.4049444 -0.5666667 -0.0367473
0.4077837 -0.5666667 -0.0420865
0.4082766 -0.5666667 -0.0427949
0.4085509 -0.5666667 -0.0435623
0.4118914 -0.5666667 -0.0490177
0.4145383 -0.5666667 -0.0519405
0.4168799 -0.5666667 -0.0565359
0.4193493 -0.5666667 -0.0605039
0.4205119 -0.5666667 -0.0665388
0.4207478 -0.5666667 -0.0674571
0.4213855 -0.5666667 -0.0759997
0.4216327 -0.5666667 -0.0771973
0.4215660 -0.5666667 -0.0791239
0.4208600 -0.5666667 -0.0848930
0.4202697 -0.5666667 -0.0902730
0.4202300 -0.5666667 -0.0904604
0.4181723 -0.5666667 -0.0949955
0.4166821 -0.5666667 -0.0988280
0.4132729 -0.5666667 -0.1034244
0.4120136 -0.5666667 -0.1075708
0.4116799 -0.5666667 -0.1149104
0.4114455 -0.5666667 -0.1177411
0.4116455 -0.5666667 -0.1187482
0.4138808 -0.5666667 -0.1269240
0.4139849 -0.5666667 -0.1275664
0.4145554 -0.5666667 -0.1345002
0.4146118 -0.5666667 -0.1362510
0.4135742 -0.5666667 -0.1442336
0.4132415 -0.5666667 -0.1454724
0.4132970 -0.5666667 -0.1458994
0.4133255 -0.5666667 -0.1463477
0.4128772 -0.5666667 -0.1527744
0.4126577 -0.5666667 -0.1574401
0.4125977 -0.5666667 -0.1581109
0.4100217 -0.5666667 -0.1671839
0.4093514 -0.5666667 -0.1691676
0.4066402 -0.5666667 -0.1786205
0.4057682 -0.5666667 -0.1809898
0.4037091 -0.5666667 -0.1852896
0.4029547 -0.5666667 -0.1866676
0.3989906 -0.5666667 -0.1921581
0.3978326 -0.5666667 -0.1933747
0.3915021 -0.5666667 -0.2008598
0.3893251 -0.5666667 -0.2035287
0.3851315 -0.5666667 -0.2080147
0.3797566 -0.5666667 -0.2121026
0.3771806 -0.5666667 -0.2144519
0.3714957 -0.5666667 -0.2193595
0.3684743 -0.5666667 -0.2216604
0.3675384 -0.5666667 -0.2225232
0.3648506 -0.5666667 -0.2241064
0.3562280 -0.5666667 -0.2289775
0.3496964 -0.5666667 -0.2325698
0.3469535 -0.5666667 -0.2338511
0.3455483 -0.5666667 -0.2345951
0.3410193 -0.5666667 -0.2354855
0.3402602 -0.5666667 -0.2354702
0.3395698 -0.5666667 -0.2355159
0.3328878 -0.5666667 -0.2351656
0.3319246 -0.5666667 -0.2349607
0.3280116 -0.5666667 -0.2336656
0.3213884 -0.5666667 -0.2320033
0.3202342 -0.5666667 -0.2315841
0.3190921 -0.5666667 -0.2312714
0.3110956 -0.5666667 -0.2301840
0.3064330 -0.5666667 -0.2294274
0.3032318 -0.5666667 -0.2286802
0.3004766 -0.5666667 -0.2271549
-0.3428309 -0.6333333 -0.0775027
-0.3384427 -0.6333333 -0.0730896
-0.3353368 -0.6333333 -0.0698646
-0.3327468 -0.6333333 -0.0666192
-0.3315980 -0.6333333 -0.0643855
-0.3294911 -0.6333333 -0.0616539
-0.3274361 -0.6333333 -0.0599616
-0.3241884 -0.6333333 -0.0570540
-0.3213025 -0.6333333 -0.0555421
-0.3174979 -0.6333333 -0.0541925
-0.3133072 -0.6333333 -0.0536739
-0.3076404 -0.6333333 -0.0526316
-0.3063996 -0.6333333 -0.0516295
-0.3040664 -0.6333333 -0.0489654
-0.3018766 -0.6333333 -0.0478088
-0.2978611 -0.6333333 -0.0456994
-0.2953699 -0.6333333 -0.0450926
-0.2931077 -0.6333333 -0.0445046
-0.2896511 -0.6333333 -0.0457107
-0.2870861 -0.6333333 -0.0467782
-0.2841347 -0.6333333 -0.0482378
-0.2770803 -0.6333333 -0.0518719
-0.2709264 -0.6333333 -0.0549293
-0.2663209 -0.6333333 -0.0584501
-0.2620381 -0.6333333 -0.0609147
-0.2577148 -0.6333333 -0.0633085
-0.2569620 -0.6333333 -0.0636215
-0.2556034 -0.6333333 -0.0639625
-0.2505054 -0.6333333 -0.0647497
-0.2487887 -0.6333333 -0.0646272
-0.2449856 -0.6333333 -0.0655866
-0.2415581 -0.6333333 -0.0660918
-0.2387187 -0.6333333 -0.0663962
-0.2349375 -0.6333333 -0.0670747
-0.2319308 -0.6333333 -0.0679046
-0.2288906 -0.6333333 -0.0679669
-0.2227856 -0.6333333 -0.0680726
-0.2218783 -0.6333333 -0.0681908
-0.2206684 -0.6333333 -0.0687997
-0.2139433 -0.6333333 -0.0704120
-0.2073281 -0.6333333 -0.0722326
-0.2072900 -0.6333333 -0.0722477
-0.2072545 -0.6333333 -0.0722695
-0.2022350 -0.6333333 -0.0750303
-0.1980091 -0.6333333 -0.0779775
-0.1955441 -0.6333333 -0.0799603
-0.1943051 -0.6333333 -0.0817097
-0.1901384 -0.6333333 -0.0844827
-0.1847499 -0.6333333 -0.0880870
-0.1793418 -0.6333333 -0.0933267
-0.1776478 -0.6333333 -0.0956767
-0.1740654 -0.6333333 -0.1014869
-0.1677198 -0.6333333 -0.1077429
-0.1667695 -0.6333333 -0.1087382
-0.1625716 -0.6333333 -0.1150107
-0.1621412 -0.6333333 -0.1156672
-0.1620348 -0.6333333 -0.1158954
-0.1583068 -0.6333333 -0.1243537
-0.1574081 -0.6333333 -0.1276367
-0.1535686 -0.6333333 -0.1345980
-0.1522644 -0.6333333 -0.1371409
-0.1514677 -0.6333333 -0.1394983
-0.1498059 -0.6333333 -0.1455196
-0.1491018 -0.6333333 -0.1484908
-0.1488507 -0.6333333 -0.1527225
-0.1491031 -0.6333333 -0.1590064
-0.1493723 -0.6333333 -0.1610556
-0.1496762 -0.6333333 -0.1628729
-0.1514052 -0.6333333 -0.1704436
-0.1522625 -0.6333333 -0.1756274
-0.1524390 -0.6333333 -0.1799629
-0.1537325 -0.6333333 -0.1883874
-0.1538857 -0.6333333 -0.1890148
-0.1542955 -0.6333333 -0.1899592
-0.1565841 -0.6333333 -0.1976958
-0.1581129 -0.6333333 -0.2018784
-0.1598134 -0.6333333 -0.2061045
-0.1622016 -0.6333333 -0.2101775
-0.1639905 -0.6333333 -0.2184314
-0.1646054 -0.6333333 -0.2213458
-0.1676111 -0.6333333 -0.2291530
-0.1689159 -0.6333333 -0.2318249
-0.1727392 -0.6333333 -0.2379390
-0.1755349 -0.6333333 -0.2445900
-0.1783468 -0.6333333 -0.2488801
-0.1792650 -0.6333333 -0.2500743
-0.1818749 -0.6333333 -0.2528534
-0.1841108 -0.6333333 -0.2550959
-0.1845656 -0.6333333 -0.2555344
-0.1923528 -0.6333333 -0.2606310
-0.1937823 -0.6333333 -0.2619729
-0.1974120 -0.6333333 -0.2652542
-0.2025528 -0.6333333 -0.2705686
-0.2053413 -0.6333333 -0.2722847
-0.2134357 -0.6333333 -0.2782606
-0.2157738 -0.6333333 -0.2800990
-0.2216122 -0.6333333 -0.2820785
-0.2283585 -0.6333333 -0.2843692
-0.2315530 -0.6333333 -0.2853838
-0.2422540 -0.6333333 -0.2863892
-0.2457352 -0.6333333 -0.2867567
-0.2465294 -0.6333333 -0.2869610
-0.2482313 -0.6333333 -0.2872998
-0.2584798 -0.6333333 -0.2896569
-0.2625580 -0.6333333 -0.2901553
-0.2671497 -0.6333333 -0.2896808
-0.2715650 -0.6333333 -0.2891493
-0.2765169 -0.6333333 -0.2885992
-0.2815836 -0.6333333 -0.2890683
-0.2857578 -0.6333333 -0.2891534
-0.2915722 -0.6333333 -0.2879335
-0.2966965 -0.6333333 -0.2862513
-0.3008371 -0.6333333 -0.2834659
-0.3048599 -0.6333333 -0.2820759
-0.3093417 -0.6333333 -0.2808663
-0.3142801 -0.6333333 -0.2782210
-0.3172936 -0.6333333 -0.2761826
-0.3244283 -0.6333333 -0.2721335
-0.3259942 -0.6333333 -0.2711854
-0.3271770 -0.6333333 -0.2702701
-0.3334331 -0.6333333 -0.2650544
-0.3370091 -0.6333333 -0.2612230
-0.3393887 -0.6333333 -0.2584192
-0.3432881 -0.6333333 -0.2529883
-0.3446199 -0.6333333 -0.2510410
-0.3454576 -0.6333333 -0.2503582
-0.3522911 -0.6333333 -0.2423688
-0.3531126 -0.6333333 -0.2411638
-0.3551760 -0.6333333 -0.2387617
-0.3592251 -0.6333333 -0.2337506
-0.3610108 -0.6333333 -0.2316915
-0.3640297 -0.6333333 -0.2270024
-0.3648694 -0.6333333 -0.2251516
-0.3657161 -0.6333333 -0.2224227
-0.3672288 -0.6333333 -0.2174902
-0.3691318 -0.6333333 -0.2111937
-0.3694799 -0.6333333 -0.2097763
-0.3705578 -0.6333333 -0.2034395
-0.3719267 -0.6333333 -0.1946996
-0.3721312 -0.6333333 -0.1909249
-0.3722960 -0.6333333 -0.1874808
-0.3719141 -0.6333333 -0.1809870
-0.3706020 -0.6333333 -0.1753388
-0.3699274 -0.6333333 -0.1729198
-0.3691674 -0.6333333 -0.1713104
-0.3665638 -0.6333333 -0.1653278
-0.3658520 -0.6333333 -0.1637317
-0.3645629 -0.6333333 -0.1585274
-0.3635729 -0.6333333 -0.1549425
-0.3622494 -0.6333333 -0.1506077
-0.3601394 -0.6333333 -0.1458968
-0.3598163 -0.6333333 -0.1435923
-0.3601197 -0.6333333 -0.1403975
-0.3601229 -0.6333333 -0.1384144
-0.3608148 -0.6333333 -0.1361389
-0.3625071 -0.6333333 -0.1341939
-0.3632802 -0.6333333 -0.1297637
-0.3650635 -0.6333333 -0.1270100
-0.3658801 -0.6333333 -0.1246188
-0.3660274 -0.6333333 -0.1219648
-0.3647504 -0.6333333 -0.1127453
-0.3647124 -0.6333333 -0.1123446
-0.3645961 -0.6333333 -0.1120450
-0.3610524 -0.6333333 -0.1047359
-0.3599810 -0.6333333 -0.0993609
-0.3583835 -0.6333333 -0.0950228
-0.3573367 -0.6333333 -0.0906735
-0.3546664 -0.6333333 -0.0860760
-0.3520962 -0.6333333 -0.0827862
-0.3441647 -0.6333333 -0.0787749
0.2067258 -0.6333333 -0.0643749
0.2140866 -0.6333333 -0.0588823
0.2172507 -0.6333333 -0.0566422
0.2210502 -0.6333333 -0.0524706
0.2223252 -0.6333333 -0.0507655
0.2236396 -0.6333333 -0.0489977
0.2261210 -0.6333333 -0.0452767
0.2312920 -0.6333333 -0.0409841
0.2323046 -0.6333333 -0.0396257
0.2335963 -0.6333333 -0.0383771
0.2401438 -0.6333333 -0.0338197
0.2453788 -0.6333333 -0.0307936
0.2482789 -0.6333333 -0.0296134
0.2571901 -0.6333333 -0.0258594
0.2604342 -0.6333333 -0.0248191
0.2613701 -0.6333333 -0.0246370
0.2626362 -0.6333333 -0.0243119
0.2754394 -0.6333333 -0.0215125
0.2790483 -0.6333333 -0.0204326
0.2827725 -0.6333333 -0.0197970
0.2858972 -0.6333333 -0.0196214
0.2914538 -0.6333333 -0.0196179
0.2914762 -0.6333333 -0.0196207
0.2914965 -0.6333333 -0.0196281
0.2991079 -0.6333333 -0.0234947
0.3017611 -0.6333333 -0.0246911
0.3072393 -0.6333333 -0.0279647
0.3094003 -0.6333333 -0.0285001
0.3148085 -0.6333333 -0.0303778
0.3196449 -0.6333333 -0.0317918
0.3243047 -0.6333333 -0.0324960
0.3282463 -0.6333333 -0.0319065
0.3344759 -0.6333333 -0.0306168
0.3455204 -0.6333333 -0.0298607
0.3479137 -0.6333333 -0.0296491
0.3491998 -0.6333333 -0.0300073
0.3549298 -0.6333333 -0.0315834
0.3610958 -0.6333333 -0.0329839
0.3621027 -0.6333333 -0.0332818
0.3639329 -0.6333333 -0.0343885
0.3704191 -0.6333333 -0.0361289
0.3735168 -0.6333333 -0.0385291
0.3753396 -0.6333333 -0.0401615
0.3794126 -0.6333333 -0.0436013
0.3803037 -0.6333333 -0.0442898
0.3827256 -0.6333333 -0.0457608
0.3861986 -0.6333333 -0.0485483
0.3882058 -0.6333333 -0.0506891
0.3928010 -0.6333333 -0.0524469
0.3953495 -0.6333333 -0.0538693
0.3976085 -0.6333333 -0.0559616
0.3999512 -0.6333333 -0.0589815
0.4015293 -0.6333333 -0.0606302
0.4023545 -0.6333333 -0.0640600
0.4032018 -0.6333333 -0.0673641
0.4031034 -0.6333333 -0.0716671
0.4043309 -0.6333333 -0.0759621
0.4063904 -0.6333333 -0.0798236
0.4071463 -0.6333333 -0.0823142
0.4079664 -0.6333333 -0.0855701
0.4081318 -0.6333333 -0.0883587
0.4082246 -0.6333333 -0.0909650
0.4075214 -0.6333333 -0.0941798
0.4067892 -0.6333333 -0.0957696
0.4049562 -0.6333333 -0.1018452
0.4049431 -0.6333333 -0.1019096
0.4047993 -0.6333333 -0.1023087
0.4022862 -0.6333333 -0.1093153
0.4022571 -0.6333333 -0.1104532
0.4031275 -0.6333333 -0.1214165
0.4032105 -0.6333333 -0.1220573
0.4045527 -0.6333333 -0.1259295
0.4070216 -0.6333333 -0.1329128
0.4077095 -0.6333333 -0.1337110
0.4115662 -0.6333333 -0.1394300
0.4140900 -0.6333333 -0.1445522
0.4145656 -0.6333333 -0.1455900
0.4146403 -0.6333333 -0.1467139
0.4148980 -0.6333333 -0.1512359
0.4137072 -0.6333333 -0.1549424
0.4120122 -0.6333333 -0.1598314
0.4111660 -0.6333333 -0.1618114
0.4103034 -0.6333333 -0.1659123
0.4092827 -0.6333333 -0.1700775
0.4083128 -0.6333333 -0.1726230
0.4055986 -0.6333333 -0.1796260
0.4027128 -0.6333333 -0.1852754
0.4010806 -0.6333333 -0.1898784
0.3987102 -0.6333333 -0.1935462
0.3953545 -0.6333333 -0.1985606
0.3891188 -0.6333333 -0.2059447
0.3889383 -0.6333333 -0.2061799
0.3887388 -0.6333333 -0.2064176
0.3817168 -0.6333333 -0.2133845
0.3759537 -0.6333333 -0.2178670
0.3746480 -0.6333333 -0.2190638
0.3704507 -0.6333333 -0.2222340
0.3697655 -0.6333333 -0.2225893
0.3629738 -0.6333333 -0.2263147
0.3613616 -0.6333333 -0.2274545
0.3535125 -0.6333333 -0.2318433
0.3512553 -0.6333333 -0.2326830
0.3444557 -0.6333333 -0.2342060
0.3438652 -0.6333333 -0.2342837
0.3359010 -0.6333333 -0.2366235
0.3342008 -0.6333333 -0.2373560
0.3323110 -0.6333333 -0.2380141
0.3229169 -0.6333333 -0.2408795
0.3206215 -0.6333333 -0.2409635
0.3127916 -0.6333333 -0.2399705
0.3113185 -0.6333333 -0.2395855
0.3042531 -0.6333333 -0.2383996
0.3024150 -0.6333333 -0.2385736
0.2977110 -0.6333333 -0.2390571
0.2964805 -0.6333333 -0.2390275
0.2929288 -0.6333333 -0.2379634
0.2897283 -0.6333333 -0.2369420
0.2875266 -0.6333333 -0.2359973
0.2807583 -0.6333333 -0.2329773
0.2703813 -0.6333333 -0.2319604
0.2700590 -0.6333333 -0.2319120
0.2696498 -0.6333333 -0.2317807
0.2611582 -0.6333333 -0.2285661
0.2553138 -0.6333333 -0.2247905
0.2543179 -0.6333333 -0.2240743
0.2535953 -0.6333333 -0.2234383
0.2498265 -0.6333333 -0.2199577
0.2452928 -0.6333333 -0.2179619
0.2427587 -0.6333333 -0.2166556
0.2396820 -0.6333333 -0.2144489
0.2347348 -0.6333333 -0.2101734
0.2302032 -0.6333333 -0.2056176
0.2290508 -0.6333333 -0.2043186
0.2279798 -0.6333333 -0.2023051
0.2252178 -0.6333333 -0.1968887
0.2199153 -0.6333333 -0.1903239
0.2183261 -0.6333333 -0.1884017
0.2132149 -0.6333333 -0.1785943
0.2118243 -0.6333333 -0.1761527
0.2107491 -0.6333333 -0.1737778
0.2085706 -0.6333333 -0.1656044
0.2079236 -0.6333333 -0.1632187
0.2061262 -0.6333333 -0.1588569
0.2051461 -0.6333333 -0.1560688
0.2016852 -0.6333333 -0.1502610
0.2006473 -0.6333333 -0.1483165
0.1999779 -0.6333333 -0.1459564
0.1987802 -0.6333333 -0.1399553
0.1964734 -0.6333333 -0.1341599
0.1957260 -0.6333333 -0.1320146
0.1944202 -0.6333333 -0.1274167
0.1935190 -0.6333333 -0.1230669
0.1930873 -0.6333333 -0.1207098
0.1923938 -0.6333333 -0.1131237
0.1931974 -0.6333333 -0.1048668
0.1926166 -0.6333333 -0.1022195
0.1927328 -0.6333333 -0.0983523
0.1932331 -0.6333333 -0.0936216
0.1977654 -0.6333333 -0.0836978
0.1981426 -0.6333333 -0.0829855
0.1981987 -0.6333333 -0.0820208
0.1994781 -0.6333333 -0.0745212
0.2007087 -0.6333333 -0.0719959
0.2019827 -0.6333333 -0.0694216
0.2062620 -0.6333333 -0.0648040
0.2064725 -0.6333333 -0.0645757
-0.2737496 -0.7000000 -0.3071197
-0.2779481 -0.7000000 -0.3049296
-0.2835356 -0.7000000 -0.3024332
-0.2859262 -0.7000000 -0.3012690
-0.2932375 -0.7000000 -0.2988674
-0.2979661 -0.7000000 -0.2964696
-0.2988405 -0.7000000 -0.2958756
-0.3033344 -0.7000000 -0.2928257
-0.3068109 -0.7000000 -0.2901793
-0.3092793 -0.7000000 -0.2880524
-0.3101155 -0.7000000 -0.2870281
-0.3119000 -0.7000000 -0.2853173
-0.3166155 -0.7000000 -0.2804585
-0.3193703 -0.7000000 -0.2775210
-0.3215051 -0.7000000 -0.2761558
-0.3252158 -0.7000000 -0.2719272
-0.3266675 -0.7000000 -0.2703584
-0.3274117 -0.7000000 -0.2694296
-0.3323470 -0.7000000 -0.2622203
-0.3376319 -0.7000000 -0.2575797
-0.3380576 -0.7000000 -0.2570697
-0.3426337 -0.7000000 -0.2510223
-0.3440389 -0.7000000 -0.2484970
-0.3460854 -0.7000000 -0.2430992
-0.3470906 -0.7000000 -0.2402193
-0.3499635 -0.7000000 -0.2354527
-0.3525441 -0.7000000 -0.2319937
-0.3538060 -0.7000000 -0.2299254
-0.3551305 -0.7000000 -0.2276146
-0.3561654 -0.7000000 -0.2242998
-0.3570196 -0.7000000 -0.2211729
-0.3573840 -0.7000000 -0.2196659
-0.3578486 -0.7000000 -0.2139460
-0.3578080 -0.7000000 -0.2114403
-0.3579844 -0.7000000 -0.2076220
-0.3583107 -0.7000000 -0.2020845
-0.3582992 -0.7000000 -0.1960495
-0.3582826 -0.7000000 -0.1953372
-0.3580604 -0.7000000 -0.1947914
-0.3553552 -0.7000000 -0.1891815
-0.3532856 -0.7000000 -0.1848519
-0.3520348 -0.7000000 -0.1830461
-0.3496811 -0.7000000 -0.1759111
-0.3491332 -0.7000000 -0.1750736
-0.3487843 -0.7000000 -0.1739665
-0.3453682 -0.7000000 -0.1650611
-0.3452073 -0.7000000 -0.1638954
-0.3453140 -0.7000000 -0.1630929
-0.3440004 -0.7000000 -0.1570078
-0.3441287 -0.7000000 -0.1553113
-0.3440026 -0.7000000 -0.1532729
-0.3431282 -0.7000000 -0.1508141
-0.3411839 -0.7000000 -0.1449711
-0.3393355 -0.7000000 -0.1415649
-0.3373299 -0.7000000 -0.1389658
-0.3318159 -0.7000000 -0.1282983
-0.3317534 -0.7000000 -0.1281561
-0.3317022 -0.7000000 -0.1280918
-0.3247795 -0.7000000 -0.1175963
-0.3214219 -0.7000000 -0.1131043
-0.3184725 -0.7000000 -0.1098203
-0.3099542 -0.7000000 -0.1041597
-0.3099164 -0.7000000 -0.1041413
-0.3098306 -0.7000000 -0.1041169
-0.2995927 -0.7000000 -0.1012508
-0.2965118 -0.7000000 -0.1001691
-0.2876343 -0.7000000 -0.0995433
-0.2876229 -0.7000000 -0.0995454
-0.2876060 -0.7000000 -0.0995532
-0.2789995 -0.7000000 -0.1038847
-0.2697394 -0.7000000 -0.1060258
-0.2673492 -0.7000000 -0.1066863
-0.2664434 -0.7000000 -0.1066577
-0.2659383 -0.7000000 -0.1069081
-0.2571314 -0.7000000 -0.1082357
-0.2554011 -0.7000000 -0.1081354
-0.2534971 -0.7000000 -0.1074312
-0.2464003 -0.7000000 -0.1059218
-0.2434083 -0.7000000 -0.1031296
-0.2386471 -0.7000000 -0.1016851
-0.2366239 -0.7000000 -0.1011602
-0.2287799 -0.7000000 -0.1012373
-0.2285124 -0.7000000 -0.1012771
-0.2253890 -0.7000000 -0.1031656
-0.2202461 -0.7000000 -0.1059507
-0.2195130 -0.7000000 -0.1064628
-0.2103486 -0.7000000 -0.1095927
-0.2032939 -0.7000000 -0.1132764
-0.2022161 -0.7000000 -0.1138061
-0.2010673 -0.7000000 -0.1148614
-0.1952601 -0.7000000 -0.1202067
-0.1891441 -0.7000000 -0.1244360
-0.1868274 -0.7000000 -0.1261525
-0.1855840 -0.7000000 -0.1281423
-0.1817646 -0.7000000 -0.1331623
-0.1789944 -0.7000000 -0.1381050
-0.1757207 -0.7000000 -0.1435908
-0.1722462 -0.7000000 -0.1504844
-0.1716452 -0.7000000 -0.1513681
-0.1707694 -0.7000000 -0.1538493
-0.1680786 -0.7000000 -0.1603397
-0.1675358 -0.7000000 -0.1622760
-0.1661211 -0.7000000 -0.1652683
-0.1637923 -0.7000000 -0.1711926
-0.1627838 -0.7000000 -0.1755181
-0.1619682 -0.7000000 -0.1813037
-0.1619122 -0.7000000 -0.1841376
-0.1612035 -0.7000000 -0.1891158
-0.1605128 -0.7000000 -0.1962943
-0.1604234 -0.7000000 -0.1997829
-0.1604145 -0.7000000 -0.2049397
-0.1613875 -0.7000000 -0.2102892
-0.1615213 -0.7000000 -0.2121904
-0.1647756 -0.7000000 -0.2198259
-0.1659159 -0.7000000 -0.2307403
-0.1660038 -0.7000000 -0.2324633
-0.1665942 -0.7000000 -0.2343074
-0.1712165 -0.7000000 -0.2453511
-0.1728033 -0.7000000 -0.2492394
-0.1730211 -0.7000000 -0.2499856
-0.1744784 -0.7000000 -0.2529852
-0.1776676 -0.7000000 -0.2602378
-0.1813727 -0.7000000 -0.2675932
-0.1829019 -0.7000000 -0.2695035
-0.1889770 -0.7000000 -0.2753089
-0.1928132 -0.7000000 -0.2789748
-0.1970746 -0.7000000 -0.2841643
-0.2039780 -0.7000000 -0.2909325
-0.2050362 -0.7000000 -0.2917667
-0.2062507 -0.7000000 -0.2921633
-0.2126265 -0.7000000 -0.2943024
-0.2158982 -0.7000000 -0.2960000
-0.2202067 -0.7000000 -0.2988791
-0.2264333 -0.7000000 -0.3017851
-0.2277583 -0.7000000 -0.3023181
-0.2295005 -0.7000000 -0.3030464
-0.2354186 -0.7000000 -0.3046863
-0.2419670 -0.7000000 -0.3072348
-0.2422787 -0.7000000 -0.3073388
-0.2427099 -0.7000000 -0.3073651
-0.2513693 -0.7000000 -0.3071097
-0.2611129 -0.7000000 -0.3086594
-0.2624100 -0.7000000 -0.3087190
-0.2662789 -0.7000000 -0.3082091
-0.2724718 -0.7000000 -0.3073667
0.3684831 -0.7000000 -0.0686324
0.3729965 -0.7000000 -0.0724263
0.3760399 -0.7000000 -0.0760036
0.3775806 -0.7000000 -0.0791114
0.3794843 -0.7000000 -0.0818949
0.3834135 -0.7000000 -0.0842309
0.3860350 -0.7000000 -0.0864396
0.3887670 -0.7000000 -0.0890891
0.3906512 -0.7000000 -0.0910948
0.3926313 -0.7000000 -0.0942098
0.3940564 -0.7000000 -0.0978420
0.3949083 -0.7000000 -0.1000439
0.3950892 -0.7000000 -0.1061422
0.3963445 -0.7000000 -0.1128881
0.3965509 -0.7000000 -0.1133855
0.3966044 -0.7000000 -0.1140801
0.3965312 -0.7000000 -0.1191608
0.3960032 -0.7000000 -0.1220729
0.3948535 -0.7000000 -0.1255748
0.3939151 -0.7000000 -0.1279383
0.3945098 -0.7000000 -0.1329234
0.3946244 -0.7000000 -0.1337558
0.3952696 -0.7000000 -0.1375069
0.3973439 -0.7000000 -0.1417381
0.3984207 -0.7000000 -0.1437094
0.3985693 -0.7000000 -0.1449449
0.3988616 -0.7000000 -0.1489842
0.3990736 -0.7000000 -0.1537766
0.3990869 -0.7000000 -0.1561985
0.3983725 -0.7000000 -0.1627989
0.3986767 -0.7000000 -0.1649405
0.3986222 -0.7000000 -0.1680048
0.3987550 -0.7000000 -0.1757397
0.3977528 -0.7000000 -0.1810714
0.3958119 -0.7000000 -0.1861760
0.3947029 -0.7000000 -0.1884443
0.3916130 -0.7000000 -0.1943741
0.3897060 -0.7000000 -0.1976387
0.3861716 -0.7000000 -0.2032448
0.3816166 -0.7000000 -0.2099099
0.3812462 -0.7000000 -0.2103837
0.3757155 -0.7000000 -0.2156715
0.3737865 -0.7000000 -0.2173902
0.3703231 -0.7000000 -0.2199108
0.3659929 -0.7000000 -0.2222715
0.3644262 -0.7000000 -0.2231797
0.3572972 -0.7000000 -0.2258603
0.3540535 -0.7000000 -0.2278555
0.3488544 -0.7000000 -0.2297306
0.3451975 -0.7000000 -0.2313355
0.3370710 -0.7000000 -0.2335768
0.3341114 -0.7000000 -0.2350723
0.3293383 -0.7000000 -0.2358448
0.3240090 -0.7000000 -0.2375757
0.3207077 -0.7000000 -0.2379249
0.3148210 -0.7000000 -0.2392453
0.3112076 -0.7000000 -0.2393423
0.3045454 -0.7000000 -0.2387795
0.3030305 -0.7000000 -0.2385981
0.3007174 -0.7000000 -0.2388666
0.2931215 -0.7000000 -0.2398964
0.2892310 -0.7000000 -0.2395764
0.2793387 -0.7000000 -0.2367965
0.2789191 -0.7000000 -0.2366879
0.2784654 -0.7000000 -0.2365276
0.2696736 -0.7000000 -0.2335007
0.2646169 -0.7000000 -0.2313130
0.2615501 -0.7000000 -0.2302199
0.2606214 -0.7000000 -0.2293861
0.2568390 -0.7000000 -0.2269955
0.2517786 -0.7000000 -0.2236296
0.2503879 -0.7000000 -0.2221718
0.2430111 -0.7000000 -0.2148902
0.2428324 -0.7000000 -0.2147784
0.2427077 -0.7000000 -0.2146759
0.2344184 -0.7000000 -0.2091777
0.2336111 -0.7000000 -0.2084605
0.2311894 -0.7000000 -0.2054478
0.2295215 -0.7000000 -0.2032857
0.2265437 -0.7000000 -0.1972200
0.2262016 -0.7000000 -0.1965091
0.2261234 -0.7000000 -0.1964157
0.2192740 -0.7000000 -0.1884325
0.2183582 -0.7000000 -0.1873305
0.2135579 -0.7000000 -0.1806333
0.2133816 -0.7000000 -0.1803747
0.2099791 -0.7000000 -0.1704880
0.2099303 -0.7000000 -0.1703479
0.2075855 -0.7000000 -0.1591666
0.2069404 -0.7000000 -0.1565327
0.2053324 -0.7000000 -0.1524769
0.2048960 -0.7000000 -0.1512420
0.2044451 -0.7000000 -0.1451979
0.2044308 -0.7000000 -0.1427898
0.2048857 -0.7000000 -0.1398392
0.2053570 -0.7000000 -0.1354498
0.2074934 -0.7000000 -0.1298860
0.2076824 -0.7000000 -0.1290174
0.2082260 -0.7000000 -0.1277677
0.2112298 -0.7000000 -0.1204420
0.2121461 -0.7000000 -0.1160783
0.2137493 -0.7000000 -0.1082817
0.2155954 -0.7000000 -0.1040469
0.2193661 -0.7000000 -0.0960509
0.2205565 -0.7000000 -0.0921603
0.2222664 -0.7000000 -0.0881707
0.2230232 -0.7000000 -0.0865815
0.2260382 -0.7000000 -0.0833361
0.2280027 -0.7000000 -0.0814757
0.2303483 -0.7000000 -0.0796396
0.2357783 -0.7000000 -0.0754106
0.2375733 -0.7000000 -0.0731110
0.2414373 -0.7000000 -0.0680492
0.2439944 -0.7000000 -0.0654441
0.2478707 -0.7000000 -0.0624880
0.2534051 -0.7000000 -0.0599707
0.2573754 -0.7000000 -0.0586116
0.2610569 -0.7000000 -0.0567887
0.2723687 -0.7000000 -0.0521495
0.2732406 -0.7000000 -0.0517809
0.2740084 -0.7000000 -0.0513424
0.2843538 -0.7000000 -0.0474373
0.2848102 -0.7000000 -0.0473106
0.2853331 -0.7000000 -0.0472278
0.2927480 -0.7000000 -0.0465060
0.2994567 -0.7000000 -0.0478937
0.2997465 -0.7000000 -0.0479387
0.2999620 -0.7000000 -0.0480354
0.3003166 -0.7000000 -0.0479490
0.3070605 -0.7000000 -0.0466720
0.3086616 -0.7000000 -0.0468294
0.3104160 -0.7000000 -0.0464504
0.3133003 -0.7000000 -0.0461434
0.3152045 -0.7000000 -0.0473117
0.3180253 -0.7000000 -0.0496500
0.3194227 -0.7000000 -0.0515579
0.3233683 -0.7000000 -0.0556458
0.3248274 -0.7000000 -0.0575277
0.3258675 -0.7000000 -0.0578613
0.3347944 -0.7000000 -0.0595490
0.3358517 -0.7000000 -0.0596611
0.3378217 -0.7000000 -0.0604462
0.3436443 -0.7000000 -0.0617527
0.3473353 -0.7000000 -0.0629606
0.3488448 -0.7000000 -0.0635903
0.3529235 -0.7000000 -0.0644133
0.3555617 -0.7000000 -0.0647941
0.3579372 -0.7000000 -0.0648518
0.3592900 -0.7000000 -0.0648154
0.3652114 -0.7000000 -0.0665056
0.3666945 -0.7000000 -0.0670116
0.5241105 0.3731557 0.5833333
0.5244827 0.3676409 0.5833333
0.5247216 0.3654703 0.5833333
0.5251215 0.3641291 0.5833333
0.5268251 0.3609829 0.5833333
0.5292682 0.3573978 0.5833333
0.5349575 0.3532114 0.5833333
0.5352972 0.3530194 0.5833333
0.5388338 0.3520320 0.5833333
0.5411046 0.3513784 0.5833333
0.5412482 0.3513331 0.5833333
0.5414224 0.3513182 0.5833333
0.5500109 0.3525706 0.5833333
0.5510664 0.3527425 0.5833333
0.5518212 0.3530057 0.5833333
0.5556467 0.3553784 0.5833333
0.5590673 0.3575321 0.5833333
0.5594752 0.3581311 0.5833333
0.5607061 0.3599865 0.5833333
0.5618889 0.3621914 0.5833333
0.5622678 0.3657070 0.5833333
0.5623121 0.3668119 0.5833333
0.5622933 0.3673663 0.5833333
0.5610142 0.3735663 0.5833333
0.5604052 0.3775573 0.5833333
0.5602135 0.3778680 0.5833333
0.5576002 0.3800885 0.5833333
0.5553532 0.3817701 0.5833333
0.5526593 0.3831426 0.5833333
0.5471990 0.3843256 0.5833333
0.5456094 0.3844744 0.5833333
0.5414863 0.3840607 0.5833333
0.5393184 0.3838231 0.5833333
0.5338253 0.3822067 0.5833333
0.5334718 0.3821460 0.5833333
0.5281995 0.3795696 0.5833333
0.5281102 0.3795197 0.5833333
0.5279693 0.3793929 0.5833333
0.5249091 0.3751914 0.5833333
0.5638472 0.3901601 0.5250000
0.5635167 0.3898852 0.5250000
0.5584443 0.3863182 0.5250000
0.5574735 0.3854597 0.5250000
0.5557756 0.3823713 0.5250000
0.5546401 0.3803867 0.5250000
0.5544420 0.3790437 0.5250000
0.5538498 0.3751442 0.5250000
0.5555242 0.3682254 0.5250000
0.5555488 0.3681199 0.5250000
0.5555882 0.3680366 0.5250000
0.5557650 0.3675773 0.5250000
0.5577469 0.3618438 0.5250000
0.5588464 0.3556486 0.5250000
0.5590617 0.3549019 0.5250000
0.5620980 0.3501052 0.5250000
0.5636979 0.3473958 0.5250000
0.5638829 0.3472019 0.5250000
0.5644621 0.3466501 0.5250000
0.5681254 0.3426612 0.5250000
0.5691645 0.3416028 0.5250000
0.5715542 0.3408426 0.5250000
0.5740877 0.3401941 0.5250000
0.5789518 0.3407179 0.5250000
0.5805099 0.3412940 0.5250000
0.5817607 0.3420488 0.5250000
0.5880737 0.3449946 0.5250000
0.5910541 0.3457411 0.5250000
0.5935760 0.3465853 0.5250000
0.5963337 0.3485367 0.5250000
0.5995723 0.3529339 0.5250000
0.6005535 0.3546008 0.5250000
0.6008260 0.3581201 0.5250000
0.6009825 0.3619068 0.5250000
0.6007289 0.3644682 0.5250000
0.6000399 0.3682656 0.5250000
0.5986672 0.3739618 0.5250000
0.5980985 0.3751293 0.5250000
0.5954864 0.3797707 0.5250000
0.5916511 0.3847612 0.5250000
0.5907078 0.3857180 0.5250000
0.5888424 0.3871607 0.5250000
0.5844139 0.3903778 0.5250000
0.5824097 0.3913230 0.5250000
0.5784881 0.3925071 0.5250000
0.5759543 0.3927648 0.5250000
0.5734018 0.3929216 0.5250000
0.5704613 0.3922558 0.5250000
0.5692992 0.3919930 0.5250000
0.5639235 0.3902140 0.5250000
0.5188600 0.4513415 0.5250000
0.5189329 0.4473237 0.5250000
0.5191666 0.4451595 0.5250000
0.5197698 0.4404312 0.5250000
0.5217226 0.4360233 0.5250000
0.5223018 0.4335160 0.5250000
0.5230811 0.4297183 0.5250000
0.5260865 0.4250126 0.5250000
0.5270597 0.4237906 0.5250000
0.5295481 0.4206970 0.5250000
0.5320254 0.4173763 0.5250000
0.5329900 0.4164383 0.5250000
0.5352995 0.4148202 0.5250000
0.5385958 0.4127691 0.5250000
0.5402896 0.4119793 0.5250000
0.5426432 0.4107149 0.5250000
0.5453278 0.4100324 0.5250000
0.5470706 0.4100072 0.5250000
0.5499143 0.4107256 0.5250000
0.5524350 0.4115101 0.5250000
0.5534121 0.4116661 0.5250000
0.5554122 0.4127710 0.5250000
0.5602665 0.4159999 0.5250000
0.5671006 0.4204629 0.5250000
0.5680880 0.4211605 0.5250000
0.5711925 0.4250859 0.5250000
0.5719680 0.4266353 0.5250000
0.5722797 0.4294637 0.5250000
0.5719852 0.4322294 0.5250000
0.5717225 0.4371136 0.5250000
0.5713775 0.4391284 0.5250000
0.5707830 0.4405651 0.5250000
0.5682531 0.4455609 0.5250000
0.5671110 0.4475351 0.5250000
0.5634803 0.4509946 0.5250000
0.5615309 0.4529623 0.5250000
0.5609212 0.4534842 0.5250000
0.5596159 0.4541509 0.5250000
0.5537267 0.4575686 0.5250000
0.5490233 0.4587746 0.5250000
0.5466193 0.4594727 0.5250000
0.5432599 0.4599287 0.5250000
0.5385356 0.4602185 0.5250000
0.5361499 0.4599028 0.5250000
0.5294400 0.4585385 0.5250000
0.5282614 0.4583015 0.5250000
0.5280297 0.4582369 0.5250000
0.5275331 0.4580995 0.5250000
0.5236390 0.4565867 0.5250000
0.5217882 0.4550127 0.5250000
0.5193272 0.4527622 0.5250000
0.5188888 0.4523789 0.5250000
0.6144699 0.2957541 0.5250000
0.6146177 0.2966593 0.5250000
0.6144822 0.2985458 0.5250000
0.6142267 0.3049177 0.5250000
0.6133073 0.3082118 0.5250000
0.6111048 0.3123126 0.5250000
0.6087967 0.3146469 0.5250000
0.6042797 0.3175774 0.5250000
0.6017944 0.3186722 0.5250000
0.5970906 0.3198655 0.5250000
0.5970727 0.3198688 0.5250000
0.5926448 0.3198667 0.5250000
0.5890282 0.3188625 0.5250000
0.5866459 0.3180563 0.5250000
0.5816982 0.3170672 0.5250000
0.5784310 0.3165276 0.5250000
0.5771622 0.3161719 0.5250000
0.5760519 0.3152849 0.5250000
0.5690727 0.3098208 0.5250000
0.5681205 0.3075010 0.5250000
0.5663450 0.3016887 0.5250000
0.5664474 0.2982973 0.5250000
0.5670866 0.2939337 0.5250000
0.5688404 0.2892060 0.5250000
0.5695864 0.2869403 0.5250000
0.5728838 0.2816653 0.5250000
0.5738173 0.2805994 0.5250000
0.5784471 0.2764581 0.5250000
0.5836611 0.2742973 0.5250000
0.5861914 0.2735290 0.5250000
0.5908715 0.2727116 0.5250000
0.5960468 0.2734769 0.5250000
0.5964463 0.2735482 0.5250000
0.5972212 0.2738147 0.5250000
0.6008000 0.2751515 0.5250000
0.6020606 0.2758647 0.5250000
0.6045714 0.2774886 0.5250000
0.6090385 0.2817255 0.5250000
0.6092291 0.2818882 0.5250000
0.6093425 0.2820190 0.5250000
0.6097713 0.2827621 0.5250000
0.6129538 0.2882804 0.5250000
-0.0771900 0.2592653 0.4666667
-0.0736146 0.2553080 0.4666667
-0.0726817 0.2547825 0.4666667
-0.0675481 0.2531472 0.4666667
-0.0625086 0.2526701 0.4666667
-0.0596965 0.2525425 0.4666667
-0.0568837 0.2528075 0.4666667
-0.0502635 0.2539871 0.4666667
-0.0398577 0.2559950 0.4666667
-0.0379419 0.2562234 0.4666667
-0.0365398 0.2556876 0.4666667
-0.0242315 0.2549106 0.4666667
-0.0232403 0.2547012 0.4666667
-0.0225678 0.2548225 0.4666667
-0.0209556 0.2556572 0.4666667
-0.0074137 0.2555541 0.4666667
-0.0067890 0.2555682 0.4666667
-0.0065410 0.2554991 0.4666667
-0.0061406 0.2554419 0.4666667
-0.0056753 0.2555339 0.4666667
0.0052740 0.2564592 0.4666667
0.0097472 0.2579333 0.4666667
0.0140852 0.2595212 0.4666667
0.0193196 0.2641082 0.4666667
0.0207521 0.2656434 0.4666667
0.0215356 0.2667734 0.4666667
0.0247161 0.2707980 0.4666667
0.0251164 0.2714213 0.4666667
0.0264683 0.2744944 0.4666667
0.0269784 0.2781603 0.4666667
0.0271886 0.2796789 0.4666667
0.0266554 0.2846498 0.4666667
0.0264406 0.2853883 0.4666667
0.0239868 0.2905845 0.4666667
0.0237333 0.2909231 0.4666667
0.0192090 0.2952668 0.4666667
0.0181358 0.2959972 0.4666667
0.0129735 0.2985675 0.4666667
0.0079391 0.3004854 0.4666667
0.0043807 0.3014376 0.4666667
-0.0024255 0.3029682 0.4666667
-0.0047518 0.3035575 0.4666667
-0.0088452 0.3056945 0.4666667
-0.0126016 0.3108046 0.4666667
-0.0136041 0.3119331 0.4666667
-0.0149650 0.3126247 0.4666667
-0.0201035 0.3160620 0.4666667
-0.0236403 0.3164601 0.4666667
-0.0268814 0.3164901 0.4666667
-0.0310755 0.3158907 0.4666667
-0.0391540 0.3142551 0.4666667
-0.0401020 0.3140273 0.4666667
-0.0410386 0.3133588 0.4666667
-0.0463633 0.3098754 0.4666667
-0.0515532 0.3054611 0.4666667
-0.0521290 0.3048777 0.4666667
-0.0529209 0.3044660 0.4666667
-0.0609339 0.3012794 0.4666667
-0.0649832 0.2996245 0.4666667
-0.0709916 0.2975082 0.4666667
-0.0758379 0.2949380 0.4666667
-0.0783195 0.2930085 0.4666667
-0.0822287 0.2904257 0.4666667
-0.0828488 0.2899884 0.4666667
-0.0833502 0.2889564 0.4666667
-0.0846088 0.2857667 0.4666667
-0.0849507 0.2839988 0.4666667
-0.0851010 0.2802363 0.4666667
-0.0848822 0.2765511 0.4666667
-0.0846606 0.2740023 0.4666667
-0.0828813 0.2685053 0.4666667
-0.0824010 0.2671486 0.4666667
-0.0817565 0.2660240 0.4666667
0.6044615 0.4120719 0.4666667
0.6043179 0.4189451 0.4666667
0.6042169 0.4211055 0.4666667
0.6031639 0.4275981 0.4666667
0.6023021 0.4308033 0.4666667
0.6004785 0.4381535 0.4666667
0.5998814 0.4396277 0.4666667
0.5984826 0.4421135 0.4666667
0.5958853 0.4467438 0.4666667
0.5942704 0.4488989 0.4666667
0.5914270 0.4520586 0.4666667
0.5895676 0.4533297 0.4666667
0.5860406 0.4560942 0.4666667
0.5842843 0.4572461 0.4666667
