0.1499423218 0.3345044649 -0.0088287220
0.1542260284 0.3345044649 0.0323227931
0.1527790770 0.3345044649 0.0236057495
0.1513321256 0.3345044649 0.0148887059
0.1498851742 0.3345044649 0.0061716623
0.1484382228 0.3345044649 -0.0025453813
0.1591082565 0.3345044649 0.0519069682
0.1578876995 0.3345044649 0.0470109245
0.1566671424 0.3345044649 0.0421148807
0.1554465854 0.3345044649 0.0372188369
0.1542260284 0.3345044649 0.0323227931
0.1707717025 0.3345044649 0.0675357927
0.1678558410 0.3345044649 0.0636285866
0.1649399795 0.3345044649 0.0597213805
0.1620241180 0.3345044649 0.0558141744
0.1591082565 0.3345044649 0.0519069682
0.1949975845 0.3345044649 0.0993064705
0.1889411140 0.3345044649 0.0913638011
0.1828846435 0.3345044649 0.0834211316
0.1768281730 0.3345044649 0.0754784622
0.1707717025 0.3345044649 0.0675357927
0.1960658030 0.3345044649 0.0999775289
0.1957987484 0.3345044649 0.0998097643
0.1955316937 0.3345044649 0.0996419997
0.1952646391 0.3345044649 0.0994742351
0.1949975845 0.3345044649 0.0993064705
0.1985242278 0.3345044649 0.1015924462
0.1979096216 0.3345044649 0.1011887169
0.1972950154 0.3345044649 0.1007849876
0.1966804092 0.3345044649 0.1003812582
0.1960658030 0.3345044649 0.0999775289
0.2275812473 0.3345044649 0.1240426731
0.2203169924 0.3345044649 0.1184301164
0.2130527375 0.3345044649 0.1128175597
0.2057884827 0.3345044649 0.1072050029
0.1985242278 0.3345044649 0.1015924462
0.2380099546 0.3345044649 0.1320783926
0.2354027778 0.3345044649 0.1300694627
0.2327956009 0.3345044649 0.1280605329
0.2301884241 0.3345044649 0.1260516030
0.2275812473 0.3345044649 0.1240426731
0.2646840141 0.3345044649 0.1390264969
0.2580154992 0.3345044649 0.1372894708
0.2513469843 0.3345044649 0.1355524447
0.2446784695 0.3345044649 0.1338154187
0.2380099546 0.3345044649 0.1320783926
0.2863125457 0.3345044649 0.1444399795
0.2809054128 0.3345044649 0.1430866088
0.2754982799 0.3345044649 0.1417332382
0.2700911470 0.3345044649 0.1403798675
0.2646840141 0.3345044649 0.1390264969
0.3057289562 0.3345044649 0.1402148295
0.3008748536 0.3345044649 0.1412711170
0.2960207510 0.3345044649 0.1423274045
0.2911666484 0.3345044649 0.1433836920
0.2863125457 0.3345044649 0.1444399795
0.3347248573 0.3345044649 0.1333482653
0.3274758820 0.3345044649 0.1350649063
0.3202269067 0.3345044649 0.1367815474
0.3129779315 0.3345044649 0.1384981884
0.3057289562 0.3345044649 0.1402148295
0.3476657151 0.3345044649 0.1242263944
0.3444305007 0.3345044649 0.1265068621
0.3411952862 0.3345044649 0.1287873298
0.3379600717 0.3345044649 0.1310677975
0.3347248573 0.3345044649 0.1333482653
0.3778596106 0.3345044649 0.1015914947
0.3703111367 0.3345044649 0.1072502196
0.3627626629 0.3345044649 0.1129089445
0.3552141890 0.3345044649 0.1185676694
0.3476657151 0.3345044649 0.1242263944
0.3857596252 0.3345044649 0.0906313131
0.3837846216 0.3345044649 0.0933713585
0.3818096179 0.3345044649 0.0961114039
0.3798346143 0.3345044649 0.0988514493
0.3778596106 0.3345044649 0.1015914947
0.4086764749 0.3345044649 0.0553286488
0.4029472625 0.3345044649 0.0641543149
0.3972180501 0.3345044649 0.0729799810
0.3914888377 0.3345044649 0.0818056471
0.3857596252 0.3345044649 0.0906313131
0.4122067779 0.3345044649 0.0409197775
0.4113242022 0.3345044649 0.0445219953
0.4104416264 0.3345044649 0.0481242131
0.4095590507 0.3345044649 0.0517264310
0.4086764749 0.3345044649 0.0553286488
0.4213174499 0.3345044649 0.0014878495
0.4190397819 0.3345044649 0.0113458315
0.4167621139 0.3345044649 0.0212038135
0.4144844459 0.3345044649 0.0310617955
0.4122067779 0.3345044649 0.0409197775
-0.2089169960 0.4303908652 -0.0347424974
-0.2078258674 0.4303908652 -0.0253915239
-0.2067347387 0.4303908652 -0.0160405504
-0.2056436100 0.4303908652 -0.0066895769
-0.2045524813 0.4303908652 0.0026613966
-0.2124045528 0.4303908652 -0.0518569756
-0.2115326636 0.4303908652 -0.0475783560
-0.2106607744 0.4303908652 -0.0432997365
-0.2097888852 0.4303908652 -0.0390211170
-0.2089169960 0.4303908652 -0.0347424974
-0.2247690675 0.4303908652 -0.0753823745
-0.2216779388 0.4303908652 -0.0695010247
-0.2185868101 0.4303908652 -0.0636196750
-0.2154956815 0.4303908652 -0.0577383253
-0.2124045528 0.4303908652 -0.0518569756
-0.2386848924 0.4303908652 -0.0987850242
-0.2352059362 0.4303908652 -0.0929343617
-0.2317269799 0.4303908652 -0.0870836993
-0.2282480237 0.4303908652 -0.0812330369
-0.2247690675 0.4303908652 -0.0753823745
-0.2525184453 0.4303908652 -0.1106182111
-0.2490600571 0.4303908652 -0.1076599144
-0.2456016689 0.4303908652 -0.1047016176
-0.2421432806 0.4303908652 -0.1017433209
-0.2386848924 0.4303908652 -0.0987850242
-0.2769692578 0.4303908652 -0.1307771922
-0.2708565547 0.4303908652 -0.1257374469
-0.2647438516 0.4303908652 -0.1206977017
-0.2586311484 0.4303908652 -0.1156579564
-0.2525184453 0.4303908652 -0.1106182111
-0.2901813058 0.4303908652 -0.1343520714
-0.2868782938 0.4303908652 -0.1334583516
-0.2835752818 0.4303908652 -0.1325646318
-0.2802722698 0.4303908652 -0.1316709120
-0.2769692578 0.4303908652 -0.1307771922
-0.3208767384 0.4303908652 -0.1426185771
-0.3132028803 0.4303908652 -0.1405519507
-0.3055290221 0.4303908652 -0.1384853243
-0.2978551640 0.4303908652 -0.1364186978
-0.2901813058 0.4303908652 -0.1343520714
-0.3334214610 0.4303908652 -0.1396228956
-0.3302852803 0.4303908652 -0.1403718160
-0.3271490997 0.4303908652 -0.1411207363
-0.3240129190 0.4303908652 -0.1418696567
-0.3208767384 0.4303908652 -0.1426185771
-0.3651083297 0.4303908652 -0.1319489094
-0.3571866125 0.4303908652 -0.1338674059
-0.3492648953 0.4303908652 -0.1357859025
-0.3413431782 0.4303908652 -0.1377043991
-0.3334214610 0.4303908652 -0.1396228956
-0.3771231884 0.4303908652 -0.1228380911
-0.3741194737 0.4303908652 -0.1251157956
-0.3711157590 0.4303908652 -0.1273935002
-0.3681120444 0.4303908652 -0.1296712048
-0.3651083297 0.4303908652 -0.1319489094
-0.4044377104 0.4303908652 -0.1011343874
-0.3976090799 0.4303908652 -0.1065603133
-0.3907804494 0.4303908652 -0.1119862392
-0.3839518189 0.4303908652 -0.1174121651
-0.3771231884 0.4303908652 -0.1228380911
-0.4150348412 0.4303908652 -0.0851043771
-0.4123855585 0.4303908652 -0.0891118797
-0.4097362758 0.4303908652 -0.0931193822
-0.4070869931 0.4303908652 -0.0971268848
-0.4044377104 0.4303908652 -0.1011343874
-0.4330415752 0.4303908652 -0.0552738984
-0.4285398917 0.4303908652 -0.0627315181
-0.4240382082 0.4303908652 -0.0701891378
-0.4195365247 0.4303908652 -0.0776467574
-0.4150348412 0.4303908652 -0.0851043771
-0.4393522910 0.4303908652 -0.0312760211
-0.4377746121 0.4303908652 -0.0372754904
-0.4361969331 0.4303908652 -0.0432749597
-0.4346192541 0.4303908652 -0.0492744291
-0.4330415752 0.4303908652 -0.0552738984
-0.4456294100 0.4303908652 -0.0013173035
-0.4440601303 0.4303908652 -0.0088069829
-0.4424908505 0.4303908652 -0.0162966623
-0.4409215708 0.4303908652 -0.0237863417
-0.4393522910 0.4303908652 -0.0312760211
-0.4427405212 0.4303908652 0.0295186649
-0.4434627434 0.4303908652 0.0218096728
-0.4441849656 0.4303908652 0.0141006807
-0.4449071878 0.4303908652 0.0063916886
-0.4456294100 0.4303908652 -0.0013173035
-0.4392135851 0.4303908652 0.0531318255
-0.4400953191 0.4303908652 0.0472285354
-0.4409770531 0.4303908652 0.0413252452
-0.4418587871 0.4303908652 0.0354219551
-0.4427405212 0.4303908652 0.0295186649
-0.4234010394 0.4303908652 0.0855496999
-0.4273541758 0.4303908652 0.0774452313
-0.4313073123 0.4303908652 0.0693407627
-0.4352604487 0.4303908652 0.0612362941
-0.4392135851 0.4303908652 0.0531318255
-0.4153480457 0.4303908652 0.1002316645
-0.4173612941 0.4303908652 0.0965611733
-0.4193745425 0.4303908652 0.0928906822
-0.4213877910 0.4303908652 0.0892201910
-0.4234010394 0.4303908652 0.0855496999
-0.3865529205 0.4303908652 0.1260230567
-0.3937517018 0.4303908652 0.1195752086
-0.4009504831 0.4303908652 0.1131273606
-0.4081492644 0.4303908652 0.1066795125
-0.4153480457 0.4303908652 0.1002316645
-0.3787815108 0.4303908652 0.1324192651
-0.3807243632 0.4303908652 0.1308202130
-0.3826672156 0.4303908652 0.1292211609
-0.3846100681 0.4303908652 0.1276221088
-0.3865529205 0.4303908652 0.1260230567
-0.3394552774 0.4303908652 0.1430870297
-0.3492868357 0.4303908652 0.1404200886
-0.3591183941 0.4303908652 0.1377531474
-0.3689499524 0.4303908652 0.1350862063
-0.3787815108 0.4303908652 0.1324192651
-0.3353072757 0.4303908652 0.1441520275
-0.3363442761 0.4303908652 0.1438857781
-0.3373812765 0.4303908652 0.1436195286
-0.3384182770 0.4303908652 0.1433532792
-0.3394552774 0.4303908652 0.1430870297
-0.2931089152 0.4303908652 0.1340077587
-0.3036585053 0.4303908652 0.1365438259
-0.3142080954 0.4303908652 0.1390798931
-0.3247576856 0.4303908652 0.1416159603
-0.3353072757 0.4303908652 0.1441520275
-0.2899243888 0.4303908652 0.1332789489
-0.2907205204 0.4303908652 0.1334611514
-0.2915166520 0.4303908652 0.1336433538
-0.2923127836 0.4303908652 0.1338255563
-0.2931089152 0.4303908652 0.1340077587
-0.2895167618 0.4303908652 0.1329778949
-0.2896186686 0.4303908652 0.1330531584
-0.2897205753 0.4303908652 0.1331284219
-0.2898224821 0.4303908652 0.1332036854
-0.2899243888 0.4303908652 0.1332789489
-0.2476514420 0.4303908652 0.1024431269
-0.2581177719 0.4303908652 0.1100768189
-0.2685841019 0.4303908652 0.1177105109
-0.2790504319 0.4303908652 0.1253442029
-0.2895167618 0.4303908652 0.1329778949
-0.2455092227 0.4303908652 0.0994004538
-0.2460447775 0.4303908652 0.1001611221
-0.2465803323 0.4303908652 0.1009217904
-0.2471158871 0.4303908652 0.1016824586
-0.2476514420 0.4303908652 0.1024431269
-0.2177157810 0.4303908652 0.0566756697
-0.2246641414 0.4303908652 0.0673568658
-0.2316125018 0.4303908652 0.0780380618
-0.2385608622 0.4303908652 0.0887192578
-0.2455092227 0.4303908652 0.0994004538
-0.2174770897 0.4303908652 0.0558317962
-0.2175367626 0.4303908652 0.0560427646
-0.2175964354 0.4303908652 0.0562537330
-0.2176561082 0.4303908652 0.0564647014
-0.2177157810 0.4303908652 0.0566756697
-0.2165106134 0.4303908652 0.0510324989
-0.2167522325 0.4303908652 0.0522323232
-0.2169938516 0.4303908652 0.0534321476
-0.2172354706 0.4303908652 0.0546319719
-0.2174770897 0.4303908652 0.0558317962
-0.2056894305 0.4303908652 0.0092140975
-0.2083947262 0.4303908652 0.0196686978
-0.2111000220 0.4303908652 0.0301232982
-0.2138053177 0.4303908652 0.0405778986
-0.2165106134 0.4303908652 0.0510324989
-0.2045524813 0.4303908652 0.0026613966
-0.2048367186 0.4303908652 0.0042995718
-0.2051209559 0.4303908652 0.0059377470
-0.2054051932 0.4303908652 0.0075759223
-0.2056894305 0.4303908652 0.0092140975
0.4416787440 0.4303908652 -0.0283984775
0.4424117077 0.4303908652 -0.0209959010
0.4431446714 0.4303908652 -0.0135933245
0.4438776350 0.4303908652 -0.0061907481
0.4446105987 0.4303908652 0.0012118284
0.4377839994 0.4303908652 -0.0533661982
0.4387576856 0.4303908652 -0.0471242680
0.4397313717 0.4303908652 -0.0408823379
0.4407050578 0.4303908652 -0.0346404077
0.4416787440 0.4303908652 -0.0283984775
0.4225542380 0.4303908652 -0.0844961938
0.4263616784 0.4303908652 -0.0767136949
0.4301691187 0.4303908652 -0.0689311960
0.4339765591 0.4303908652 -0.0611486971
0.4377839994 0.4303908652 -0.0533661982
0.4137648953 0.4303908652 -0.1004546187
0.4159622310 0.4303908652 -0.0964650124
0.4181595667 0.4303908652 -0.0924754062
0.4203569024 0.4303908652 -0.0884858000
0.4225542380 0.4303908652 -0.0844961938
0.3858934270 0.4303908652 -0.1253871322
0.3928612941 0.4303908652 -0.1191540038
0.3998291612 0.4303908652 -0.1129208754
0.4067970283 0.4303908652 -0.1066877470
0.4137648953 0.4303908652 -0.1004546187
0.3771379739 0.4303908652 -0.1326267018
0.3793268372 0.4303908652 -0.1308168094
0.3815157005 0.4303908652 -0.1290069170
0.3837045638 0.4303908652 -0.1271970246
0.3858934270 0.4303908652 -0.1253871322
0.3388533158 0.4303908652 -0.1430417216
0.3484244803 0.4303908652 -0.1404379666
0.3579956449 0.4303908652 -0.1378342117
0.3675668094 0.4303908652 -0.1352304567
0.3771379739 0.4303908652 -0.1326267018
0.3335701215 0.4303908652 -0.1443962085
0.3348909201 0.4303908652 -0.1440575867
0.3362117186 0.4303908652 -0.1437189650
0.3375325172 0.4303908652 -0.1433803433
0.3388533158 0.4303908652 -0.1430417216
0.2891101596 0.4303908652 -0.1336061338
0.3002251501 0.4303908652 -0.1363036525
0.3113401405 0.4303908652 -0.1390011711
0.3224551310 0.4303908652 -0.1416986898
0.3335701215 0.4303908652 -0.1443962085
0.2883978188 0.4303908652 -0.1334352950
0.2885759040 0.4303908652 -0.1334780047
0.2887539892 0.4303908652 -0.1335207144
0.2889320744 0.4303908652 -0.1335634241
0.2891101596 0.4303908652 -0.1336061338
0.2751305812 0.4303908652 -0.1234440785
0.2784473906 0.4303908652 -0.1259418826
0.2817642000 0.4303908652 -0.1284396867
0.2850810094 0.4303908652 -0.1309374909
0.2883978188 0.4303908652 -0.1334352950
0.2463152540 0.4303908652 -0.1022949056
0.2535190858 0.4303908652 -0.1075821988
0.2607229176 0.4303908652 -0.1128694920
0.2679267494 0.4303908652 -0.1181567852
0.2751305812 0.4303908652 -0.1234440785
0.2448651003 0.4303908652 -0.1002539160
0.2452276387 0.4303908652 -0.1007641634
0.2455901771 0.4303908652 -0.1012744108
0.2459527156 0.4303908652 -0.1017846582
0.2463152540 0.4303908652 -0.1022949056
0.2196563461 0.4303908652 -0.0616231884
0.2259585346 0.4303908652 -0.0712808703
0.2322607232 0.4303908652 -0.0809385522
0.2385629117 0.4303908652 -0.0905962341
0.2448651003 0.4303908652 -0.1002539160
0.2160936905 0.4303908652 -0.0563279168
0.2169843544 0.4303908652 -0.0576517347
0.2178750183 0.4303908652 -0.0589755526
0.2187656822 0.4303908652 -0.0602993705
0.2196563461 0.4303908652 -0.0616231884
0.2159508857 0.4303908652 -0.0560916410
0.2159865869 0.4303908652 -0.0561507100
0.2160222881 0.4303908652 -0.0562097789
0.2160579893 0.4303908652 -0.0562688479
0.2160936905 0.4303908652 -0.0563279168
0.2035541648 0.4303908652 -0.0097270531
0.2066533450 0.4303908652 -0.0213182001
0.2097525253 0.4303908652 -0.0329093471
0.2128517055 0.4303908652 -0.0445004941
0.2159508857 0.4303908652 -0.0560916410
0.2021343142 0.4303908652 -0.0017575026
0.2024892768 0.4303908652 -0.0037498902
0.2028442395 0.4303908652 -0.0057422779
0.2031992022 0.4303908652 -0.0077346655
0.2035541648 0.4303908652 -0.0097270531
0.2062320304 0.4303908652 0.0340401113
0.2052076014 0.4303908652 0.0250907078
0.2041831723 0.4303908652 0.0161413043
0.2031587432 0.4303908652 0.0071919009
0.2021343142 0.4303908652 -0.0017575026
0.2100180061 0.4303908652 0.0528553652
0.2090715122 0.4303908652 0.0481515517
0.2081250183 0.4303908652 0.0434477383
0.2071785244 0.4303908652 0.0387439248
0.2062320304 0.4303908652 0.0340401113
0.2218050798 0.4303908652 0.0747822427
0.2188583114 0.4303908652 0.0693005233
0.2159115430 0.4303908652 0.0638188040
0.2129647746 0.4303908652 0.0583370846
0.2100180061 0.4303908652 0.0528553652
0.2367136583 0.4303908652 0.0997743376
0.2329865137 0.4303908652 0.0935263139
0.2292593691 0.4303908652 0.0872782901
0.2255322244 0.4303908652 0.0810302664
0.2218050798 0.4303908652 0.0747822427
0.2494674279 0.4303908652 0.1104879227
0.2462789855 0.4303908652 0.1078095264
0.2430905431 0.4303908652 0.1051311301
0.2399021007 0.4303908652 0.1024527339
0.2367136583 0.4303908652 0.0997743376
0.2755084907 0.4303908652 0.1317191480
0.2689982250 0.4303908652 0.1264113417
0.2624879593 0.4303908652 0.1211035354
0.2559776936 0.4303908652 0.1157957290
0.2494674279 0.4303908652 0.1104879227
0.2874963402 0.4303908652 0.1349386620
0.2844993778 0.4303908652 0.1341337835
0.2815024155 0.4303908652 0.1333289050
0.2785054531 0.4303908652 0.1325240265
0.2755084907 0.4303908652 0.1317191480
0.3198525106 0.4303908652 0.1434730640
0.3117634680 0.4303908652 0.1413394635
0.3036744254 0.4303908652 0.1392058630
0.2955853828 0.4303908652 0.1370722625
0.2874963402 0.4303908652 0.1349386620
0.3315338896 0.4303908652 0.1406877470
0.3286135449 0.4303908652 0.1413840763
0.3256932001 0.4303908652 0.1420804055
0.3227728554 0.4303908652 0.1427767347
0.3198525106 0.4303908652 0.1434730640
0.3644365393 0.4303908652 0.1326478554
0.3562108769 0.4303908652 0.1346578283
0.3479852145 0.4303908652 0.1366678012
0.3397595520 0.4303908652 0.1386777741
0.3315338896 0.4303908652 0.1406877470
0.3759759186 0.4303908652 0.1239073342
0.3730910738 0.4303908652 0.1260924645
0.3702062290 0.4303908652 0.1282775948
0.3673213841 0.4303908652 0.1304627251
0.3644365393 0.4303908652 0.1326478554
0.4039519104 0.4303908652 0.1015804421
0.3969579125 0.4303908652 0.1071621651
0.3899639145 0.4303908652 0.1127438882
0.3829699166 0.4303908652 0.1183256112
0.3759759186 0.4303908652 0.1239073342
0.4141753038 0.4303908652 0.0860106134
0.4116194554 0.4303908652 0.0899030706
0.4090636071 0.4303908652 0.0937955277
0.4065077587 0.4303908652 0.0976879849
0.4039519104 0.4303908652 0.1015804421
0.4324309032 0.4303908652 0.0554223393
0.4278670034 0.4303908652 0.0630694078
0.4233031035 0.4303908652 0.0707164764
0.4187392036 0.4303908652 0.0783635449
0.4141753038 0.4303908652 0.0860106134
0.4383557312 0.4303908652 0.0322162934
0.4368745242 0.4303908652 0.0380178049
0.4353933172 0.4303908652 0.0438193164
0.4339121102 0.4303908652 0.0496208278
0.4324309032 0.4303908652 0.0554223393
0.4446105987 0.4303908652 0.0012118284
0.4430468819 0.4303908652 0.0089629447
0.4414831650 0.4303908652 0.0167140609
0.4399194481 0.4303908652 0.0244651771
0.4383557312 0.4303908652 0.0322162934
-0.2055823452 0.5262772654 -0.0025194701
-0.2054548382 0.5262772654 -0.0015853279
-0.2053273313 0.5262772654 -0.0006511858
-0.2051998243 0.5262772654 0.0002829564
-0.2050723174 0.5262772654 0.0012170985
-0.2107081686 0.5262772654 -0.0263344313
-0.2094267128 0.5262772654 -0.0203806910
-0.2081452569 0.5262772654 -0.0144269507
-0.2068638011 0.5262772654 -0.0084732104
-0.2055823452 0.5262772654 -0.0025194701
-0.2143813497 0.5262772654 -0.0495182257
-0.2134630545 0.5262772654 -0.0437222771
-0.2125447592 0.5262772654 -0.0379263285
-0.2116264639 0.5262772654 -0.0321303799
-0.2107081686 0.5262772654 -0.0263344313
-0.2153310643 0.5262772654 -0.0536205534
-0.2150936356 0.5262772654 -0.0525949715
-0.2148562070 0.5262772654 -0.0515693895
-0.2146187784 0.5262772654 -0.0505438076
-0.2143813497 0.5262772654 -0.0495182257
-0.2400059289 0.5262772654 -0.0954941443
-0.2338372127 0.5262772654 -0.0850257466
-0.2276684966 0.5262772654 -0.0745573489
-0.2214997804 0.5262772654 -0.0640889511
-0.2153310643 0.5262772654 -0.0536205534
-0.2432096326 0.5262772654 -0.1005088567
-0.2424087066 0.5262772654 -0.0992551786
-0.2416077807 0.5262772654 -0.0980015005
-0.2408068548 0.5262772654 -0.0967478224
-0.2400059289 0.5262772654 -0.0954941443
-0.2834990485 0.5262772654 -0.1320650710
-0.2734266945 0.5262772654 -0.1241760174
-0.2633543405 0.5262772654 -0.1162869638
-0.2532819865 0.5262772654 -0.1083979103
-0.2432096326 0.5262772654 -0.1005088567
-0.2837291026 0.5262772654 -0.1322534036
-0.2836715891 0.5262772654 -0.1322063205
-0.2836140755 0.5262772654 -0.1321592373
-0.2835565620 0.5262772654 -0.1321121542
-0.2834990485 0.5262772654 -0.1320650710
-0.2837507686 0.5262772654 -0.1322591861
-0.2837453521 0.5262772654 -0.1322577404
-0.2837399356 0.5262772654 -0.1322562948
-0.2837345191 0.5262772654 -0.1322548492
-0.2837291026 0.5262772654 -0.1322534036
-0.3276805007 0.5262772654 -0.1437838530
-0.3166980676 0.5262772654 -0.1409026863
-0.3057156346 0.5262772654 -0.1380215195
-0.2947332016 0.5262772654 -0.1351403528
-0.2837507686 0.5262772654 -0.1322591861
-0.3342924901 0.5262772654 -0.1422099985
-0.3326394928 0.5262772654 -0.1426034622
-0.3309864954 0.5262772654 -0.1429969258
-0.3293334980 0.5262772654 -0.1433903894
-0.3276805007 0.5262772654 -0.1437838530
-0.3717756551 0.5262772654 -0.1328110086
-0.3624048639 0.5262772654 -0.1351607561
-0.3530340726 0.5262772654 -0.1375105036
-0.3436632814 0.5262772654 -0.1398602511
-0.3342924901 0.5262772654 -0.1422099985
-0.3840570927 0.5262772654 -0.1234297321
-0.3809867333 0.5262772654 -0.1257750512
-0.3779163739 0.5262772654 -0.1281203704
-0.3748460145 0.5262772654 -0.1304656895
-0.3717756551 0.5262772654 -0.1328110086
-0.4108078612 0.5262772654 -0.1016275801
-0.4041201691 0.5262772654 -0.1070781181
-0.3974324769 0.5262772654 -0.1125286561
-0.3907447848 0.5262772654 -0.1179791941
-0.3840570927 0.5262772654 -0.1234297321
-0.4245433319 0.5262772654 -0.0805412092
-0.4211094642 0.5262772654 -0.0858128019
-0.4176755965 0.5262772654 -0.0910843947
-0.4142417289 0.5262772654 -0.0963559874
-0.4108078612 0.5262772654 -0.1016275801
-0.4391013761 0.5262772654 -0.0552774850
-0.4354618650 0.5262772654 -0.0615934160
-0.4318223540 0.5262772654 -0.0679093471
-0.4281828429 0.5262772654 -0.0742252781
-0.4245433319 0.5262772654 -0.0805412092
-0.4475185185 0.5262772654 -0.0226986532
-0.4454142329 0.5262772654 -0.0308433611
-0.4433099473 0.5262772654 -0.0389880691
-0.4412056617 0.5262772654 -0.0471327770
-0.4391013761 0.5262772654 -0.0552774850
-0.4514401259 0.5262772654 -0.0008106427
-0.4504597241 0.5262772654 -0.0062826453
-0.4494793222 0.5262772654 -0.0117546479
-0.4484989204 0.5262772654 -0.0172266506
-0.4475185185 0.5262772654 -0.0226986532
-0.4474493486 0.5262772654 0.0383829600
-0.4484470429 0.5262772654 0.0285845594
-0.4494447372 0.5262772654 0.0187861587
-0.4504424316 0.5262772654 0.0089877580
-0.4514401259 0.5262772654 -0.0008106427
-0.4446290441 0.5262772654 0.0539476651
-0.4453341202 0.5262772654 0.0500564888
-0.4460391963 0.5262772654 0.0461653125
-0.4467442724 0.5262772654 0.0422741363
-0.4474493486 0.5262772654 0.0383829600
-0.4256925780 0.5262772654 0.0912171717
-0.4304266945 0.5262772654 0.0818997951
-0.4351608110 0.5262772654 0.0725824184
-0.4398949275 0.5262772654 0.0632650417
-0.4446290441 0.5262772654 0.0539476651
-0.4198303323 0.5262772654 0.1010839555
-0.4212958937 0.5262772654 0.0986172596
-0.4227614551 0.5262772654 0.0961505636
-0.4242270165 0.5262772654 0.0936838677
-0.4256925780 0.5262772654 0.0912171717
-0.3885136876 0.5262772654 0.1274366857
-0.3963428488 0.5262772654 0.1208485031
-0.4041720100 0.5262772654 0.1142603206
-0.4120011711 0.5262772654 0.1076721380
-0.4198303323 0.5262772654 0.1010839555
-0.3810092959 0.5262772654 0.1332576490
-0.3828853938 0.5262772654 0.1318024081
-0.3847614917 0.5262772654 0.1303471673
-0.3866375897 0.5262772654 0.1288919265
-0.3885136876 0.5262772654 0.1274366857
-0.3437966623 0.5262772654 0.1427937344
-0.3530998207 0.5262772654 0.1404097131
-0.3624029791 0.5262772654 0.1380256917
-0.3717061375 0.5262772654 0.1356416703
-0.3810092959 0.5262772654 0.1332576490
-0.3343736642 0.5262772654 0.1450751720
-0.3367294137 0.5262772654 0.1445048126
-0.3390851632 0.5262772654 0.1439344532
-0.3414409128 0.5262772654 0.1433640938
-0.3437966623 0.5262772654 0.1427937344
-0.2986228224 0.5262772654 0.1368807642
-0.3075605329 0.5262772654 0.1389293661
-0.3164982433 0.5262772654 0.1409779681
-0.3254359537 0.5262772654 0.1430265700
-0.3343736642 0.5262772654 0.1450751720
-0.2865173474 0.5262772654 0.1340789050
-0.2895437161 0.5262772654 0.1347793698
-0.2925700849 0.5262772654 0.1354798346
-0.2955964537 0.5262772654 0.1361802994
-0.2986228224 0.5262772654 0.1368807642
-0.2589981701 0.5262772654 0.1139489826
-0.2658779644 0.5262772654 0.1189814632
-0.2727577587 0.5262772654 0.1240139438
-0.2796375531 0.5262772654 0.1290464244
-0.2865173474 0.5262772654 0.1340789050
-0.2442058264 0.5262772654 0.1026939687
-0.2479039123 0.5262772654 0.1055077221
-0.2516019982 0.5262772654 0.1083214756
-0.2553000842 0.5262772654 0.1111352291
-0.2589981701 0.5262772654 0.1139489826
-0.2293362612 0.5262772654 0.0803814229
-0.2330536525 0.5262772654 0.0859595594
-0.2367710438 0.5262772654 0.0915376958
-0.2404884351 0.5262772654 0.0971158322
-0.2442058264 0.5262772654 0.1026939687
-0.2149379300 0.5262772654 0.0560155907
-0.2185375128 0.5262772654 0.0621070487
-0.2221370956 0.5262772654 0.0681985068
-0.2257366784 0.5262772654 0.0742899649
-0.2293362612 0.5262772654 0.0803814229
-0.2112851705 0.5262772654 0.0410873957
-0.2121983604 0.5262772654 0.0448194444
-0.2131115503 0.5262772654 0.0485514932
-0.2140247402 0.5262772654 0.0522835419
-0.2149379300 0.5262772654 0.0560155907
-0.2050723174 0.5262772654 0.0012170985
-0.2066255307 0.5262772654 0.0111846728
-0.2081787440 0.5262772654 0.0211522471
-0.2097319573 0.5262772654 0.0311198214
-0.2112851705 0.5262772654 0.0410873957
0.4460355731 0.5262772654 -0.0376843800
0.4471077258 0.5262772654 -0.0280609720
0.4481798785 0.5262772654 -0.0184375640
0.4492520312 0.5262772654 -0.0088141561
0.4503241839 0.5262772654 0.0008092519
0.4429707949 0.5262772654 -0.0540828576
0.4437369895 0.5262772654 -0.0499832382
0.4445031840 0.5262772654 -0.0458836188
0.4452693786 0.5262772654 -0.0417839994
0.4460355731 0.5262772654 -0.0376843800
0.4242717025 0.5262772654 -0.0906048163
0.4289464756 0.5262772654 -0.0814743266
0.4336212487 0.5262772654 -0.0723438369
0.4382960218 0.5262772654 -0.0632133472
0.4429707949 0.5262772654 -0.0540828576
0.4179459084 0.5262772654 -0.1012729469
0.4195273569 0.5262772654 -0.0986059142
0.4211088054 0.5262772654 -0.0959388816
0.4226902540 0.5262772654 -0.0932718489
0.4242717025 0.5262772654 -0.0906048163
0.3874611331 0.5262772654 -0.1270988142
0.3950823269 0.5262772654 -0.1206423474
0.4027035207 0.5262772654 -0.1141858805
0.4103247145 0.5262772654 -0.1077294137
0.4179459084 0.5262772654 -0.1012729469
0.3794276826 0.5262772654 -0.1333835456
0.3814360452 0.5262772654 -0.1318123628
0.3834444078 0.5262772654 -0.1302411799
0.3854527705 0.5262772654 -0.1286699971
0.3874611331 0.5262772654 -0.1270988142
0.3432159274 0.5262772654 -0.1426794759
0.3522688662 0.5262772654 -0.1403554933
0.3613218050 0.5262772654 -0.1380315108
0.3703747438 0.5262772654 -0.1357075282
0.3794276826 0.5262772654 -0.1333835456
0.3334003806 0.5262772654 -0.1450568731
0.3358542673 0.5262772654 -0.1444625238
0.3383081540 0.5262772654 -0.1438681745
0.3407620407 0.5262772654 -0.1432738252
0.3432159274 0.5262772654 -0.1426794759
0.2983507539 0.5262772654 -0.1367781438
0.3071131606 0.5262772654 -0.1388478261
0.3158755673 0.5262772654 -0.1409175084
0.3246379739 0.5262772654 -0.1429871907
0.3334003806 0.5262772654 -0.1450568731
0.2860489679 0.5262772654 -0.1338698580
0.2891244144 0.5262772654 -0.1345969294
0.2921998609 0.5262772654 -0.1353240009
0.2952753074 0.5262772654 -0.1360510723
0.2983507539 0.5262772654 -0.1367781438
0.2587636510 0.5262772654 -0.1136982140
0.2655849802 0.5262772654 -0.1187411250
0.2724063095 0.5262772654 -0.1237840360
0.2792276387 0.5262772654 -0.1288269470
0.2860489679 0.5262772654 -0.1338698580
0.2438339921 0.5262772654 -0.1022719221
0.2475664068 0.5262772654 -0.1051284951
0.2512988215 0.5262772654 -0.1079850681
0.2550312363 0.5262772654 -0.1108416410
0.2587636510 0.5262772654 -0.1136982140
0.2289300249 0.5262772654 -0.0800852730
0.2326560167 0.5262772654 -0.0856319353
0.2363820085 0.5262772654 -0.0911785976
0.2401080003 0.5262772654 -0.0967252598
0.2438339921 0.5262772654 -0.1022719221
0.2143060313 0.5262772654 -0.0554313424
0.2179620297 0.5262772654 -0.0615948251
0.2216180281 0.5262772654 -0.0677583077
0.2252740265 0.5262772654 -0.0739217904
0.2289300249 0.5262772654 -0.0800852730
0.2106151369 0.5262772654 -0.0409213146
0.2115378605 0.5262772654 -0.0445488215
0.2124605841 0.5262772654 -0.0481763285
0.2133833077 0.5262772654 -0.0518038355
0.2143060313 0.5262772654 -0.0554313424
0.2042231006 0.5262772654 -0.0005500659
0.2058211096 0.5262772654 -0.0106428781
0.2074191187 0.5262772654 -0.0207356902
0.2090171278 0.5262772654 -0.0308285024
0.2106151369 0.5262772654 -0.0409213146
0.2046279461 0.5262772654 0.0025628019
0.2045267347 0.5262772654 0.0017845850
0.2044255233 0.5262772654 0.0010063680
0.2043243120 0.5262772654 0.0002281511
0.2042231006 0.5262772654 -0.0005500659
0.2087941736 0.5262772654 0.0220533597
0.2077526167 0.5262772654 0.0171807202
0.2067110599 0.5262772654 0.0123080808
0.2056695030 0.5262772654 0.0074354414
0.2046279461 0.5262772654 0.0025628019
0.2130035134 0.5262772654 0.0493806910
0.2119511785 0.5262772654 0.0425488581
0.2108988435 0.5262772654 0.0357170253
0.2098465086 0.5262772654 0.0288851925
0.2087941736 0.5262772654 0.0220533597
0.2141502708 0.5262772654 0.0543247694
0.2138635815 0.5262772654 0.0530887498
0.2135768921 0.5262772654 0.0518527302
0.2132902028 0.5262772654 0.0506167106
0.2130035134 0.5262772654 0.0493806910
0.2384351486 0.5262772654 0.0954353682
0.2323639291 0.5262772654 0.0851577185
0.2262927097 0.5262772654 0.0748800688
0.2202214903 0.5262772654 0.0646024191
0.2141502708 0.5262772654 0.0543247694
0.2421216513 0.5262772654 0.1012085346
0.2412000256 0.5262772654 0.0997652430
0.2402783999 0.5262772654 0.0983219514
0.2393567743 0.5262772654 0.0968786598
0.2384351486 0.5262772654 0.0954353682
0.2824654516 0.5262772654 0.1325404772
0.2723795015 0.5262772654 0.1247074916
0.2622935515 0.5262772654 0.1168745059
0.2522076014 0.5262772654 0.1090415203
0.2421216513 0.5262772654 0.1012085346
0.2829403455 0.5262772654 0.1329030157
0.2828216220 0.5262772654 0.1328123811
0.2827028986 0.5262772654 0.1327217465
0.2825841751 0.5262772654 0.1326311118
0.2824654516 0.5262772654 0.1325404772
0.2854332455 0.5262772654 0.1335037330
0.2848100205 0.5262772654 0.1333535537
0.2841867955 0.5262772654 0.1332033743
0.2835635705 0.5262772654 0.1330531950
0.2829403455 0.5262772654 0.1329030157
0.3272544283 0.5262772654 0.1443712487
0.3167991326 0.5262772654 0.1416543698
0.3063438369 0.5262772654 0.1389374909
0.2958885412 0.5262772654 0.1362206119
0.2854332455 0.5262772654 0.1335037330
0.3337206119 0.5262772654 0.1428216220
0.3321040660 0.5262772654 0.1432090287
0.3304875201 0.5262772654 0.1435964354
0.3288709742 0.5262772654 0.1439838420
0.3272544283 0.5262772654 0.1443712487
0.3714944371 0.5262772654 0.1333006880
0.3620509808 0.5262772654 0.1356809215
0.3526075245 0.5262772654 0.1380611550
0.3431640682 0.5262772654 0.1404413885
0.3337206119 0.5262772654 0.1428216220
0.3837321768 0.5262772654 0.1239193383
0.3806727419 0.5262772654 0.1262646757
0.3776133070 0.5262772654 0.1286100132
0.3745538721 0.5262772654 0.1309553506
0.3714944371 0.5262772654 0.1333006880
0.4105057825 0.5262772654 0.1019699898
0.4038123811 0.5262772654 0.1074573269
0.3971189797 0.5262772654 0.1129446640
0.3904255782 0.5262772654 0.1184320012
0.3837321768 0.5262772654 0.1239193383
0.4240072464 0.5262772654 0.0809682331
0.4206318804 0.5262772654 0.0862186722
0.4172565144 0.5262772654 0.0914691114
0.4138811484 0.5262772654 0.0967195506
0.4105057825 0.5262772654 0.1019699898
0.4385062948 0.5262772654 0.0554433465
0.4348815327 0.5262772654 0.0618245681
0.4312567706 0.5262772654 0.0682057898
0.4276320085 0.5262772654 0.0745870114
0.4240072464 0.5262772654 0.0809682331
0.4464827258 0.5262772654 0.0232598448
0.4444886181 0.5262772654 0.0313057202
0.4424945103 0.5262772654 0.0393515957
0.4405004026 0.5262772654 0.0473974711
0.4385062948 0.5262772654 0.0554433465
0.4503241839 0.5262772654 0.0008092519
0.4493638194 0.5262772654 0.0064219002
0.4484034548 0.5262772654 0.0120345484
0.4474430903 0.5262772654 0.0176471966
0.4464827258 0.5262772654 0.0232598448
-0.1534402723 0.6221636656 -0.0029768702
-0.1532960218 0.6221636656 -0.0021986349
-0.1531517713 0.6221636656 -0.0014203996
-0.1530075209 0.6221636656 -0.0006421644
-0.1528632704 0.6221636656 0.0001360709
-0.1672003367 0.6221636656 -0.0549894598
-0.1637603206 0.6221636656 -0.0419863124
-0.1603203045 0.6221636656 -0.0289831650
-0.1568802884 0.6221636656 -0.0159800176
-0.1534402723 0.6221636656 -0.0029768702
-0.1678105695 0.6221636656 -0.0558821549
-0.1676580113 0.6221636656 -0.0556589811
-0.1675054531 0.6221636656 -0.0554358073
-0.1673528949 0.6221636656 -0.0552126336
-0.1672003367 0.6221636656 -0.0549894598
-0.2015805885 0.6221636656 -0.1019666959
-0.1931380837 0.6221636656 -0.0904455607
-0.1846955790 0.6221636656 -0.0789244254
-0.1762530742 0.6221636656 -0.0674032901
-0.1678105695 0.6221636656 -0.0558821549
-0.2178104963 0.6221636656 -0.1129460548
-0.2137530193 0.6221636656 -0.1102012150
-0.2096955424 0.6221636656 -0.1074563753
-0.2056380654 0.6221636656 -0.1047115356
-0.2015805885 0.6221636656 -0.1019666959
-0.2488551457 0.6221636656 -0.1336410482
-0.2410939833 0.6221636656 -0.1284672998
-0.2333328210 0.6221636656 -0.1232935515
-0.2255716586 0.6221636656 -0.1181198031
-0.2178104963 0.6221636656 -0.1129460548
-0.2988093983 0.6221636656 -0.1440892988
-0.2863208352 0.6221636656 -0.1414772361
-0.2738322720 0.6221636656 -0.1388651735
-0.2613437088 0.6221636656 -0.1362531108
-0.2488551457 0.6221636656 -0.1336410482
-0.3031085493 0.6221636656 -0.1449860196
-0.3020337615 0.6221636656 -0.1447618394
-0.3009589738 0.6221636656 -0.1445376592
-0.2998841861 0.6221636656 -0.1443134790
-0.2988093983 0.6221636656 -0.1440892988
-0.3103504611 0.6221636656 -0.1434864588
-0.3085399832 0.6221636656 -0.1438613490
-0.3067295052 0.6221636656 -0.1442362392
-0.3049190272 0.6221636656 -0.1446111294
-0.3031085493 0.6221636656 -0.1449860196
-0.3510592885 0.6221636656 -0.1335858586
-0.3408820817 0.6221636656 -0.1360610086
-0.3307048748 0.6221636656 -0.1385361587
-0.3205276680 0.6221636656 -0.1410113087
-0.3103504611 0.6221636656 -0.1434864588
-0.3635612648 0.6221636656 -0.1244380764
-0.3604357708 0.6221636656 -0.1267250220
-0.3573102767 0.6221636656 -0.1290119675
-0.3541847826 0.6221636656 -0.1312989130
-0.3510592885 0.6221636656 -0.1335858586
-0.3924191187 0.6221636656 -0.1019458352
-0.3852046552 0.6221636656 -0.1075688955
-0.3779901918 0.6221636656 -0.1131919558
-0.3707757283 0.6221636656 -0.1188150161
-0.3635612648 0.6221636656 -0.1244380764
-0.4099377836 0.6221636656 -0.0757386181
-0.4055581174 0.6221636656 -0.0822904223
-0.4011784512 0.6221636656 -0.0888422266
-0.3967987850 0.6221636656 -0.0953940309
-0.3924191187 0.6221636656 -0.1019458352
-0.4221718636 0.6221636656 -0.0551540038
-0.4191133436 0.6221636656 -0.0603001574
-0.4160548236 0.6221636656 -0.0654463109
-0.4129963036 0.6221636656 -0.0705924645
-0.4099377836 0.6221636656 -0.0757386181
-0.4323282828 0.6221636656 -0.0138590982
-0.4297891780 0.6221636656 -0.0241828246
-0.4272500732 0.6221636656 -0.0345065510
-0.4247109684 0.6221636656 -0.0448302774
-0.4221718636 0.6221636656 -0.0551540038
-0.4346824037 0.6221636656 -0.0002998097
-0.4340938735 0.6221636656 -0.0036896318
-0.4335053433 0.6221636656 -0.0070794540
-0.4329168131 0.6221636656 -0.0104692761
-0.4323282828 0.6221636656 -0.0138590982
-0.4280573854 0.6221636656 0.0468823745
-0.4297136400 0.6221636656 0.0350868284
-0.4313698946 0.6221636656 0.0232912824
-0.4330261492 0.6221636656 0.0114957363
-0.4346824037 0.6221636656 -0.0002998097
-0.4263566828 0.6221636656 0.0547250037
-0.4267818584 0.6221636656 0.0527643464
-0.4272070341 0.6221636656 0.0508036891
-0.4276322098 0.6221636656 0.0488430318
-0.4280573854 0.6221636656 0.0468823745
-0.4020729761 0.6221636656 0.0960611184
-0.4081439028 0.6221636656 0.0857270897
-0.4142148295 0.6221636656 0.0753930610
-0.4202857561 0.6221636656 0.0650590324
-0.4263566828 0.6221636656 0.0547250037
-0.3981463183 0.6221636656 0.1019499341
-0.3991279827 0.6221636656 0.1004777302
-0.4001096472 0.6221636656 0.0990055263
-0.4010913117 0.6221636656 0.0975333224
-0.4020729761 0.6221636656 0.0960611184
-0.3629344898 0.6221636656 0.1282252964
-0.3717374469 0.6221636656 0.1216564559
-0.3805404040 0.6221636656 0.1150876153
-0.3893433611 0.6221636656 0.1085187747
-0.3981463183 0.6221636656 0.1019499341
-0.3546125018 0.6221636656 0.1340335236
-0.3566929988 0.6221636656 0.1325814668
-0.3587734958 0.6221636656 0.1311294100
-0.3608539928 0.6221636656 0.1296773532
-0.3629344898 0.6221636656 0.1282252964
-0.3187963695 0.6221636656 0.1421575904
-0.3277504026 0.6221636656 0.1401265737
-0.3367044357 0.6221636656 0.1380955570
-0.3456584687 0.6221636656 0.1360645403
-0.3546125018 0.6221636656 0.1340335236
-0.3027501830 0.6221636656 0.1456326307
-0.3067617296 0.6221636656 0.1447638706
-0.3107732762 0.6221636656 0.1438951105
-0.3147848229 0.6221636656 0.1430263505
-0.3187963695 0.6221636656 0.1421575904
-0.2756064998 0.6221636656 0.1398274777
-0.2823924206 0.6221636656 0.1412787659
-0.2891783414 0.6221636656 0.1427300542
-0.2959642622 0.6221636656 0.1441813424
-0.3027501830 0.6221636656 0.1456326307
-0.2500504319 0.6221636656 0.1343205241
-0.2564394488 0.6221636656 0.1356972625
-0.2628284658 0.6221636656 0.1370740009
-0.2692174828 0.6221636656 0.1384507393
-0.2756064998 0.6221636656 0.1398274777
-0.2373249158 0.6221636656 0.1256676914
-0.2405062948 0.6221636656 0.1278308996
-0.2436876738 0.6221636656 0.1299941077
-0.2468690528 0.6221636656 0.1321573159
-0.2500504319 0.6221636656 0.1343205241
-0.2086447811 0.6221636656 0.1054183136
-0.2158148148 0.6221636656 0.1104806580
-0.2229848485 0.6221636656 0.1155430025
-0.2301548822 0.6221636656 0.1206053469
-0.2373249158 0.6221636656 0.1256676914
-0.2051254575 0.6221636656 0.1033973796
-0.2060052884 0.6221636656 0.1039026131
-0.2068851193 0.6221636656 0.1044078466
-0.2077649502 0.6221636656 0.1049130801
-0.2086447811 0.6221636656 0.1054183136
-0.2035782462 0.6221636656 0.1024852877
-0.2039650490 0.6221636656 0.1027133106
-0.2043518519 0.6221636656 0.1029413336
-0.2047386547 0.6221636656 0.1031693566
-0.2051254575 0.6221636656 0.1033973796
-0.1778465818 0.6221636656 0.0718704436
-0.1842794979 0.6221636656 0.0795241546
-0.1907124140 0.6221636656 0.0871778656
-0.1971453301 0.6221636656 0.0948315766
-0.2035782462 0.6221636656 0.1024852877
-0.1653761528 0.6221636656 0.0553339921
-0.1684937601 0.6221636656 0.0594681050
-0.1716113673 0.6221636656 0.0636022178
-0.1747289745 0.6221636656 0.0677363307
-0.1778465818 0.6221636656 0.0718704436
-0.1601818914 0.6221636656 0.0377385449
-0.1614804567 0.6221636656 0.0421374067
-0.1627790221 0.6221636656 0.0465362685
-0.1640775875 0.6221636656 0.0509351303
-0.1653761528 0.6221636656 0.0553339921
-0.1528632704 0.6221636656 0.0001360709
-0.1546929256 0.6221636656 0.0095366894
-0.1565225809 0.6221636656 0.0189373079
-0.1583522361 0.6221636656 0.0283379264
-0.1601818914 0.6221636656 0.0377385449
0.4270229835 0.6221636656 -0.0463960621
0.4287470539 0.6221636656 -0.0346852218
0.4304711243 0.6221636656 -0.0229743815
0.4321951947 0.6221636656 -0.0112635412
0.4339192651 0.6221636656 0.0004472991
0.4252141707 0.6221636656 -0.0546511492
0.4256663739 0.6221636656 -0.0525873774
0.4261185771 0.6221636656 -0.0505236056
0.4265707803 0.6221636656 -0.0484598338
0.4270229835 0.6221636656 -0.0463960621
0.4011851120 0.6221636656 -0.0956414873
0.4071923767 0.6221636656 -0.0853939028
0.4131996413 0.6221636656 -0.0751463183
0.4192069060 0.6221636656 -0.0648987337
0.4252141707 0.6221636656 -0.0546511492
0.3970538721 0.6221636656 -0.1018698580
0.3980866820 0.6221636656 -0.1003127653
0.3991194920 0.6221636656 -0.0987556727
0.4001523020 0.6221636656 -0.0971985800
0.4011851120 0.6221636656 -0.0956414873
0.3624781877 0.6221636656 -0.1279216806
0.3711221088 0.6221636656 -0.1214087249
0.3797660299 0.6221636656 -0.1148957693
0.3884099510 0.6221636656 -0.1083828136
0.3970538721 0.6221636656 -0.1018698580
0.3540148587 0.6221636656 -0.1338668570
0.3561306910 0.6221636656 -0.1323805629
0.3582465232 0.6221636656 -0.1308942688
0.3603623554 0.6221636656 -0.1294079747
0.3624781877 0.6221636656 -0.1279216806
0.3187258088 0.6221636656 -0.1418841312
0.3275480713 0.6221636656 -0.1398798126
0.3363703338 0.6221636656 -0.1378754941
0.3451925963 0.6221636656 -0.1358711755
0.3540148587 0.6221636656 -0.1338668570
0.3027008491 0.6221636656 -0.1453579271
0.3067070890 0.6221636656 -0.1444894781
0.3107133289 0.6221636656 -0.1436210291
0.3147195689 0.6221636656 -0.1427525801
0.3187258088 0.6221636656 -0.1418841312
0.2757467428 0.6221636656 -0.1394798712
0.2824852694 0.6221636656 -0.1409493852
0.2892237959 0.6221636656 -0.1424188991
0.2959623225 0.6221636656 -0.1438884131
0.3027008491 0.6221636656 -0.1453579271
0.2503071293 0.6221636656 -0.1339546187
0.2566670326 0.6221636656 -0.1353359318
0.2630269360 0.6221636656 -0.1367172449
0.2693868394 0.6221636656 -0.1380985580
0.2757467428 0.6221636656 -0.1394798712
0.2375180793 0.6221636656 -0.1252293954
0.2407153418 0.6221636656 -0.1274107012
0.2439126043 0.6221636656 -0.1295920070
0.2471098668 0.6221636656 -0.1317733128
0.2503071293 0.6221636656 -0.1339546187
0.2087122676 0.6221636656 -0.1048823745
0.2159137205 0.6221636656 -0.1099691297
0.2231151735 0.6221636656 -0.1150558849
0.2303166264 0.6221636656 -0.1201426402
0.2375180793 0.6221636656 -0.1252293954
0.2053386034 0.6221636656 -0.1029492754
0.2061820195 0.6221636656 -0.1034325501
0.2070254355 0.6221636656 -0.1039158249
0.2078688516 0.6221636656 -0.1043990997
0.2087122676 0.6221636656 -0.1048823745
0.2038550725 0.6221636656 -0.1020761236
0.2042259552 0.6221636656 -0.1022944115
0.2045968379 0.6221636656 -0.1025126995
0.2049677207 0.6221636656 -0.1027309874
0.2053386034 0.6221636656 -0.1029492754
0.1779348558 0.6221636656 -0.0714422486
0.1844149100 0.6221636656 -0.0791007173
0.1908949641 0.6221636656 -0.0867591861
0.1973750183 0.6221636656 -0.0944176548
0.2038550725 0.6221636656 -0.1020761236
0.1654956083 0.6221636656 -0.0549326599
0.1686054201 0.6221636656 -0.0590600571
0.1717152320 0.6221636656 -0.0631874543
0.1748250439 0.6221636656 -0.0673148514
0.1779348558 0.6221636656 -0.0714422486
0.1602406675 0.6221636656 -0.0373306983
0.1615544027 0.6221636656 -0.0417311887
0.1628681379 0.6221636656 -0.0461316791
0.1641818731 0.6221636656 -0.0505321695
0.1654956083 0.6221636656 -0.0549326599
0.1529965598 0.6221636656 0.0002411799
0.1548075867 0.6221636656 -0.0091517896
0.1566186137 0.6221636656 -0.0185447592
0.1584296406 0.6221636656 -0.0279377287
0.1602406675 0.6221636656 -0.0373306983
0.1535832967 0.6221636656 0.0034221197
0.1534366125 0.6221636656 0.0026268848
0.1532899283 0.6221636656 0.0018316498
0.1531432440 0.6221636656 0.0010364149
0.1529965598 0.6221636656 0.0002411799
0.1673439467 0.6221636656 0.0553624652
0.1639037842 0.6221636656 0.0423773789
0.1604636217 0.6221636656 0.0293922925
0.1570234592 0.6221636656 0.0164072061
0.1535832967 0.6221636656 0.0034221197
0.1680278876 0.6221636656 0.0563610745
0.1678569024 0.6221636656 0.0561114222
0.1676859171 0.6221636656 0.0558617699
0.1675149319 0.6221636656 0.0556121176
0.1673439467 0.6221636656 0.0553624652
0.2016722295 0.6221636656 0.1023614405
0.1932611440 0.6221636656 0.0908613490
0.1848500586 0.6221636656 0.0793612575
0.1764389731 0.6221636656 0.0678611660
0.1680278876 0.6221636656 0.0563610745
0.2180910555 0.6221636656 0.1134391744
0.2139863490 0.6221636656 0.1106697409
0.2098816425 0.6221636656 0.1079003074
0.2057769360 0.6221636656 0.1051308740
0.2016722295 0.6221636656 0.1023614405
0.2489711609 0.6221636656 0.1340532133
0.2412511345 0.6221636656 0.1288997036
0.2335311082 0.6221636656 0.1237461938
0.2258110818 0.6221636656 0.1185926841
0.2180910555 0.6221636656 0.1134391744
0.2993751281 0.6221636656 0.1445604597
0.2867741363 0.6221636656 0.1419336481
0.2741731445 0.6221636656 0.1393068365
0.2615721527 0.6221636656 0.1366800249
0.2489711609 0.6221636656 0.1340532133
0.3033566828 0.6221636656 0.1453921095
0.3023612941 0.6221636656 0.1451841970
0.3013659054 0.6221636656 0.1449762846
0.3003705168 0.6221636656 0.1447683721
0.2993751281 0.6221636656 0.1445604597
0.3100425267 0.6221636656 0.1440070268
0.3083710657 0.6221636656 0.1443532975
0.3066996047 0.6221636656 0.1446995681
0.3050281438 0.6221636656 0.1450458388
0.3033566828 0.6221636656 0.1453921095
0.3512118284 0.6221636656 0.1339759918
0.3409195030 0.6221636656 0.1364837505
0.3306271776 0.6221636656 0.1389915093
0.3203348521 0.6221636656 0.1414992680
0.3100425267 0.6221636656 0.1440070268
0.3638375787 0.6221636656 0.1246898697
0.3606811411 0.6221636656 0.1270114002
0.3575247036 0.6221636656 0.1293329308
0.3543682660 0.6221636656 0.1316544613
0.3512118284 0.6221636656 0.1339759918
0.3924433465 0.6221636656 0.1022782170
0.3852919046 0.6221636656 0.1078811301
0.3781404626 0.6221636656 0.1134840433
0.3709890206 0.6221636656 0.1190869565
0.3638375787 0.6221636656 0.1246898697
0.4097589665 0.6221636656 0.0760070268
0.4054300615 0.6221636656 0.0825748243
0.4011011565 0.6221636656 0.0891426219
0.3967722515 0.6221636656 0.0957104194
0.3924433465 0.6221636656 0.1022782170
0.4218686137 0.6221636656 0.0553975260
0.4188412019 0.6221636656 0.0605499012
0.4158137901 0.6221636656 0.0657022764
0.4127863783 0.6221636656 0.0708546516
0.4097589665 0.6221636656 0.0760070268
0.4315971307 0.6221636656 0.0142622603
0.4291650015 0.6221636656 0.0245460767
0.4267328722 0.6221636656 0.0348298931
0.4243007429 0.6221636656 0.0451137096
0.4218686137 0.6221636656 0.0553975260
0.4339192651 0.6221636656 0.0004472991
0.4333387315 0.6221636656 0.0039010394
0.4327581979 0.6221636656 0.0073547797
0.4321776643 0.6221636656 0.0108085200
0.4315971307 0.6221636656 0.0142622603
0.3818671498 0.7180500659 -0.0517946128
0.3842919777 0.7180500659 -0.0387921058
0.3867168057 0.7180500659 -0.0257895989
0.3891416337 0.7180500659 -0.0127870919
0.3915664617 0.7180500659 0.0002154150
0.3810389401 0.7180500659 -0.0549620114
0.3812459925 0.7180500659 -0.0541701618
0.3814530449 0.7180500659 -0.0533783121
0.3816600974 0.7180500659 -0.0525864625
0.3818671498 0.7180500659 -0.0517946128
0.3515415020 0.7180500659 -0.0969459816
0.3589158615 0.7180500659 -0.0864499890
0.3662902211 0.7180500659 -0.0759539965
0.3736645806 0.7180500659 -0.0654580040
0.3810389401 0.7180500659 -0.0549620114
0.3474093837 0.7180500659 -0.1021461719
0.3484424133 0.7180500659 -0.1008461243
0.3494754428 0.7180500659 -0.0995460767
0.3505084724 0.7180500659 -0.0982460291
0.3515415020 0.7180500659 -0.0969459816
0.3098996487 0.7180500659 -0.1256915532
0.3192770824 0.7180500659 -0.1198052079
0.3286545162 0.7180500659 -0.1139188625
0.3380319499 0.7180500659 -0.1080325172
0.3474093837 0.7180500659 -0.1021461719
0.2956255307 0.7180500659 -0.1340420875
0.2991940602 0.7180500659 -0.1319544540
0.3027625897 0.7180500659 -0.1298668204
0.3063311192 0.7180500659 -0.1277791868
0.3098996487 0.7180500659 -0.1256915532
0.2649596692 0.7180500659 -0.1398032499
0.2726261345 0.7180500659 -0.1383629593
0.2802925999 0.7180500659 -0.1369226687
0.2879590653 0.7180500659 -0.1354823781
0.2956255307 0.7180500659 -0.1340420875
0.2336310203 0.7180500659 -0.1454371981
0.2414631826 0.7180500659 -0.1440287110
0.2492953448 0.7180500659 -0.1426202240
0.2571275070 0.7180500659 -0.1412117369
0.2649596692 0.7180500659 -0.1398032499
0.2216901625 0.7180500659 -0.1432424974
0.2246753770 0.7180500659 -0.1437911726
0.2276605914 0.7180500659 -0.1443398478
0.2306458059 0.7180500659 -0.1448885229
0.2336310203 0.7180500659 -0.1454371981
0.2017751427 0.7180500659 -0.1396406090
0.2067538977 0.7180500659 -0.1405410811
0.2117326526 0.7180500659 -0.1414415532
0.2167114076 0.7180500659 -0.1423420253
0.2216901625 0.7180500659 -0.1432424974
0.1771780852 0.7180500659 -0.1363388962
0.1833273496 0.7180500659 -0.1371643244
0.1894766140 0.7180500659 -0.1379897526
0.1956258783 0.7180500659 -0.1388151808
0.2017751427 0.7180500659 -0.1396406090
0.1589292929 0.7180500659 -0.1339669155
0.1634914910 0.7180500659 -0.1345599107
0.1680536891 0.7180500659 -0.1351529059
0.1726158871 0.7180500659 -0.1357459010
0.1771780852 0.7180500659 -0.1363388962
0.1343003953 0.7180500659 -0.1237564046
0.1404576197 0.7180500659 -0.1263090324
0.1466148441 0.7180500659 -0.1288616601
0.1527720685 0.7180500659 -0.1314142878
0.1589292929 0.7180500659 -0.1339669155
0.1120696823 0.7180500659 -0.1143475333
0.1176273606 0.7180500659 -0.1166997511
0.1231850388 0.7180500659 -0.1190519690
0.1287427170 0.7180500659 -0.1214041868
0.1343003953 0.7180500659 -0.1237564046
0.0920431855 0.7180500659 -0.1098407261
0.0970498097 0.7180500659 -0.1109674279
0.1020564339 0.7180500659 -0.1120941297
0.1070630581 0.7180500659 -0.1132208315
0.1120696823 0.7180500659 -0.1143475333
0.0588868394 0.7180500659 -0.1020890060
0.0671759259 0.7180500659 -0.1040269360
0.0754650124 0.7180500659 -0.1059648661
0.0837540990 0.7180500659 -0.1079027961
0.0920431855 0.7180500659 -0.1098407261
0.0488971600 0.7180500659 -0.0973750549
0.0513945799 0.7180500659 -0.0985535427
0.0538919997 0.7180500659 -0.0997320304
0.0563894196 0.7180500659 -0.1009105182
0.0588868394 0.7180500659 -0.1020890060
0.0435024155 0.7180500659 -0.0942896355
0.0448511016 0.7180500659 -0.0950609903
0.0461997877 0.7180500659 -0.0958323452
0.0475484739 0.7180500659 -0.0966037000
0.0488971600 0.7180500659 -0.0973750549
-0.0066545894 0.7180500659 -0.0909525692
